ply
format ascii 1.0
element vertex 1226
property float x
property float y
property float z
property uchar red
property uchar green
property uchar blue
end_header
0.036900 0.051589 0.333234 142 128 102
0.090220 0.050327 0.336664 186 159 114
-0.003870 0.051787 0.326200 142 144 131
0.012781 0.052852 0.330012 138 119 102
0.025252 0.052903 0.331877 178 176 137
0.034670 0.052686 0.332907 107 102 96
0.037388 0.052795 0.333371 168 151 125
0.023538 0.053220 0.331140 169 148 119
0.002738 0.053786 0.327773 192 186 150
0.043577 0.053427 0.332458 135 112 94
-0.005072 0.054014 0.326162 198 193 161
0.018752 0.054097 0.330196 186 162 134
-0.004125 0.054900 0.325466 152 153 135
0.046701 0.054457 0.332155 189 166 132
0.022962 0.054998 0.328965 178 162 136
0.038789 0.055196 0.331105 173 156 130
0.021419 0.055697 0.329458 138 120 100
0.041764 0.055375 0.331663 164 142 118
-0.004560 0.056221 0.324384 138 140 126
0.027015 0.056714 0.329380 142 132 105
0.002415 0.056769 0.324734 135 127 106
0.036631 0.056979 0.329911 156 139 113
0.001358 0.057325 0.324570 186 180 144
0.030825 0.057541 0.329074 146 129 101
0.027806 0.057667 0.328444 139 123 98
0.024974 0.058247 0.327770 115 103 87
-0.005427 0.059373 0.322208 140 140 128
0.003063 0.059246 0.323246 164 154 127
0.033493 0.059024 0.328066 165 144 117
0.025914 0.059305 0.326767 162 146 123
0.038082 0.058978 0.328145 179 158 127
-0.040194 0.059632 0.316997 84 89 95
0.009776 0.059586 0.324037 167 143 115
0.015854 0.059568 0.324715 168 142 117
0.022871 0.059798 0.326835 147 135 113
0.043728 0.059729 0.328988 185 159 124
-0.025942 0.060154 0.316858 77 85 88
-0.022650 0.060378 0.318211 184 185 179
0.022459 0.060369 0.325289 144 132 108
0.035245 0.060137 0.327057 168 147 116
-0.037396 0.060629 0.316158 39 40 44
0.029594 0.060563 0.326747 170 154 128
-0.004335 0.061439 0.320371 182 179 162
0.033019 0.061254 0.325892 160 140 113
-0.001927 0.061615 0.321025 182 177 155
0.003836 0.061846 0.322030 182 172 136
0.009055 0.062144 0.322976 179 168 140
0.016795 0.062450 0.323656 175 155 130
0.023556 0.062610 0.324789 154 143 125
0.020752 0.062792 0.323748 161 146 127
-0.000360 0.062789 0.320773 48 42 42
0.029984 0.062903 0.323438 170 154 129
0.031542 0.063084 0.324905 169 153 128
0.036110 0.063551 0.325200 174 157 127
0.015176 0.063973 0.323422 66 55 49
0.040713 0.063700 0.325331 187 173 136
0.038847 0.063930 0.325624 176 159 129
0.044739 0.063931 0.325245 198 185 151
0.036915 0.064461 0.325311 139 123 100
0.046625 0.064172 0.325711 184 170 143
0.050932 0.064079 0.325611 188 171 141
0.055055 0.064037 0.325404 171 148 130
0.004323 0.065583 0.321875 44 40 37
0.053673 0.065156 0.325157 97 77 68
-0.007941 0.067056 0.322098 149 145 142
0.008924 0.067224 0.323850 166 162 159
0.001043 0.067979 0.323406 165 160 156
0.024853 0.067740 0.325468 153 150 145
-0.000468 0.068142 0.322732 159 156 151
-0.013503 0.060091 0.286017 165 162 157
-0.060995 0.069097 0.316246 66 60 26
-0.030578 0.069613 0.320894 156 155 151
-0.069920 0.070096 0.316444 113 109 82
0.012666 0.069031 0.324486 162 159 154
0.018588 0.069449 0.325285 161 156 150
0.038446 0.068878 0.325636 135 128 86
0.068480 0.068361 0.325306 135 139 88
-0.011634 0.071340 0.323998 42 40 41
-0.004557 0.070855 0.323211 46 42 41
0.015810 0.070788 0.324793 62 54 51
0.025007 0.070739 0.326261 158 155 150
0.049004 0.070134 0.327226 142 130 88
-0.038565 0.071803 0.319796 40 38 41
0.022601 0.070893 0.325655 152 149 144
0.006897 0.071344 0.324584 49 44 41
0.060789 0.069992 0.326952 144 143 89
0.175231 0.062583 0.314118 67 71 98
-0.003784 0.072577 0.325591 136 133 128
0.039517 0.071218 0.326619 46 40 28
0.008075 0.072239 0.325329 45 41 38
0.013053 0.072223 0.325893 152 147 143
0.042217 0.071321 0.325995 52 44 25
0.005845 0.073027 0.326761 152 149 144
0.019044 0.072494 0.326177 157 154 149
0.043799 0.071650 0.327126 50 43 27
0.022659 0.072780 0.326788 150 147 142
-0.023297 0.073889 0.323767 37 35 36
0.050585 0.071605 0.325960 46 40 26
0.040661 0.072785 0.328171 129 120 79
0.051955 0.071844 0.326831 46 40 24
0.055679 0.072108 0.326691 43 40 33
0.049029 0.073094 0.328332 134 125 84
-0.014650 0.074769 0.324654 40 36 33
0.001609 0.074455 0.326067 145 142 137
0.023851 0.073950 0.326991 107 102 98
0.059567 0.072723 0.327416 74 95 52
0.062118 0.072687 0.327424 72 93 50
0.071220 0.072326 0.326403 79 97 55
0.037673 0.074682 0.329092 120 112 76
0.023656 0.074625 0.325543 146 141 135
0.057182 0.074193 0.328853 114 117 74
0.099986 0.071445 0.324225 66 91 49
-0.094664 0.083698 0.342300 37 33 34
0.041934 0.074963 0.328435 47 40 22
0.102048 0.071430 0.323553 67 92 52
0.104708 0.071385 0.323288 65 91 52
0.044791 0.075337 0.329016 81 75 43
-0.085121 0.079551 0.325381 57 53 54
0.121123 0.070757 0.322435 150 152 138
0.122939 0.071053 0.323540 151 153 131
0.018496 0.076494 0.327577 147 144 137
0.037192 0.076345 0.329556 41 40 36
0.038517 0.076513 0.330110 121 112 73
0.043430 0.076232 0.329730 135 124 79
0.128427 0.070832 0.322342 150 146 98
0.070254 0.074902 0.327009 72 89 47
0.046131 0.076858 0.329485 136 125 80
-0.056138 0.078865 0.321016 37 31 33
0.059635 0.076490 0.329123 73 91 49
0.087111 0.074643 0.326359 71 91 54
-0.083589 0.081039 0.324066 92 83 84
0.120276 0.072584 0.322378 133 137 120
0.143754 0.070650 0.318279 161 144 98
0.067838 0.076728 0.329855 116 122 74
-0.053437 0.079648 0.321303 54 48 48
0.098504 0.074815 0.326093 134 134 80
0.152264 0.070363 0.316698 130 136 88
-0.070126 0.079485 0.317858 97 91 91
0.060820 0.077930 0.330695 124 127 74
0.078280 0.076861 0.329140 126 128 78
0.093924 0.075508 0.326008 67 87 50
0.155508 0.070590 0.316518 141 145 94
0.081201 0.076801 0.328879 133 132 78
0.136039 0.072648 0.320845 137 109 88
0.144821 0.071295 0.317624 140 116 82
0.119617 0.073843 0.322895 71 85 59
-0.065835 0.080120 0.318893 88 82 82
-0.063989 0.080208 0.319367 90 84 84
0.065290 0.078381 0.330942 125 129 78
0.127174 0.073715 0.321919 90 88 49
-0.033303 0.080949 0.324182 48 42 42
0.042430 0.079761 0.330585 32 29 22
0.084789 0.077481 0.328902 129 129 77
-0.061594 0.080739 0.318169 48 42 42
-0.060348 0.081186 0.319615 43 37 37
-0.058841 0.081150 0.319772 51 42 43
0.094515 0.077738 0.328313 119 123 73
0.099962 0.077793 0.327660 71 86 47
0.104887 0.077458 0.326965 71 86 47
0.079263 0.079892 0.330967 105 113 66
-0.018791 0.076934 0.306104 50 44 44
-0.043280 0.083057 0.322737 47 42 39
-0.134877 0.084760 0.314249 190 187 182
0.100971 0.079288 0.328826 121 123 74
0.112304 0.078815 0.327166 115 118 71
0.120163 0.078414 0.325358 70 86 57
-0.128923 0.086388 0.316444 208 205 200
-0.076670 0.086786 0.320412 60 52 50
-0.136053 0.087285 0.311640 211 208 203
-0.079340 0.087664 0.320498 158 152 152
-0.061892 0.087816 0.323470 55 47 45
-0.076557 0.088461 0.321449 159 155 152
-0.069179 0.088352 0.322328 53 44 45
-0.078793 0.088654 0.321090 157 153 150
-0.081232 0.088874 0.320845 146 142 139
-0.131932 0.088790 0.313415 211 207 204
-0.079454 0.089741 0.321616 149 145 142
-0.073903 0.089738 0.322435 153 149 146
-0.068510 0.089792 0.322582 54 49 46
-0.077631 0.090107 0.322206 146 140 140
-0.076528 0.090755 0.322690 150 146 145
-0.072620 0.091172 0.323357 54 49 46
-0.078435 0.091967 0.323069 152 147 144
-0.074230 0.092470 0.324738 145 137 135
-0.123482 0.092298 0.314769 183 178 174
-0.133033 0.092056 0.311372 206 203 198
-0.080612 0.093601 0.322989 48 43 40
-0.112612 0.092870 0.315832 56 51 45
-0.131797 0.093197 0.310674 196 193 188
-0.127418 0.094029 0.311879 210 207 202
-0.132758 0.093795 0.309954 195 192 187
-0.104186 0.097270 0.319681 53 48 44
-0.128093 0.095796 0.310973 193 190 185
-0.103796 0.098455 0.320668 150 145 141
-0.100321 0.098830 0.321790 151 148 143
-0.125788 0.097053 0.310316 201 198 193
-0.123991 0.097583 0.311136 200 197 192
-0.126850 0.097988 0.310886 200 197 192
-0.121375 0.098119 0.311913 176 171 167
-0.123248 0.098281 0.311324 183 180 175
-0.126033 0.098563 0.309906 182 177 171
-0.125305 0.098916 0.310488 197 194 189
-0.116711 0.100571 0.313340 183 180 175
-0.124617 0.100296 0.309112 180 177 172
-0.130816 0.100380 0.305596 183 180 175
-0.126978 0.101547 0.307146 180 177 172
-0.100343 0.104633 0.318497 164 161 156
0.234967 0.101113 0.351397 45 40 37
-0.120485 0.103176 0.310360 187 184 179
-0.279490 0.173804 0.485698 190 185 181
-0.125158 0.105538 0.304865 181 176 170
-0.102619 0.108611 0.314525 181 178 173
-0.127260 0.106999 0.303043 177 174 169
-0.108402 0.109477 0.312410 180 175 171
-0.107110 0.109866 0.312211 166 163 156
-0.107339 0.109781 0.310104 165 160 154
-0.088936 0.111955 0.318239 170 167 162
-0.127567 0.108454 0.300658 201 196 192
-0.110592 0.111256 0.309291 180 175 171
-0.074510 0.114406 0.322247 173 170 165
-0.116965 0.110504 0.306453 164 159 155
-0.105723 0.112775 0.309499 168 163 159
-0.120727 0.111412 0.302646 187 182 178
-0.116551 0.112770 0.305330 167 162 156
-0.122115 0.112671 0.300879 194 189 185
-0.105813 0.115057 0.309368 181 178 173
-0.125848 0.113703 0.299025 198 197 193
-0.119155 0.114679 0.302208 171 166 162
-0.122326 0.114504 0.299480 174 171 166
-0.124836 0.114979 0.298341 203 198 194
-0.119792 0.116170 0.300815 190 187 182
-0.111852 0.117480 0.303775 178 173 167
-0.113026 0.118595 0.302758 180 175 169
-0.073032 0.123214 0.317916 178 173 167
-0.074169 0.123409 0.317131 167 162 158
-0.113099 0.119622 0.302758 196 193 188
-0.114880 0.119643 0.301412 183 180 175
-0.103815 0.120852 0.305566 182 177 173
-0.073926 0.124797 0.317966 186 181 177
-0.053065 0.129193 0.321417 187 184 177
-0.085754 0.126862 0.310950 201 196 190
-0.088638 0.126754 0.310530 198 195 190
-0.077553 0.127902 0.314011 179 176 171
-0.081313 0.127510 0.311887 203 200 195
-0.068502 0.129828 0.316240 190 185 181
-0.062327 0.130102 0.315961 184 181 176
-0.059979 0.131165 0.317809 187 184 177
-0.053242 0.131610 0.319513 198 193 189
-0.091648 0.128525 0.307847 187 184 179
-0.068938 0.130470 0.314883 202 199 194
-0.072764 0.130360 0.313731 199 196 191
-0.069885 0.131774 0.314970 203 200 195
-0.079497 0.130299 0.309054 178 173 169
-0.070062 0.132344 0.313846 194 189 183
-0.062145 0.132678 0.315131 196 191 185
-0.079780 0.131937 0.309662 179 174 168
-0.082272 0.132186 0.308334 206 203 198
-0.056239 0.135143 0.317309 206 203 198
-0.062624 0.133669 0.312586 210 207 202
-0.057291 0.136115 0.314969 207 202 198
-0.080547 0.134243 0.308243 199 196 191
-0.059074 0.136599 0.315056 206 203 198
-0.058092 0.137343 0.314400 209 206 201
-0.062082 0.137680 0.314469 196 191 187
-0.036098 0.139352 0.320841 203 198 192
-0.056103 0.138267 0.315076 210 205 201
-0.035527 0.139847 0.319450 196 191 185
-0.063540 0.138439 0.312562 195 190 186
-0.094941 0.135283 0.300953 198 194 191
-0.066131 0.140843 0.309673 187 184 179
-0.064965 0.142117 0.311366 210 205 201
-0.040384 0.143821 0.317278 204 199 195
-0.043512 0.144010 0.316077 192 187 183
-0.065812 0.141997 0.309222 206 203 198
-0.061705 0.142941 0.310431 208 204 201
-0.052806 0.143710 0.311988 195 192 187
-0.059501 0.143671 0.310300 199 196 191
-0.052637 0.144892 0.312200 206 203 198
-0.059006 0.145115 0.311039 207 204 199
-0.042040 0.146660 0.313176 202 197 191
-0.039120 0.148118 0.315273 187 182 176
-0.060522 0.146263 0.308890 209 206 201
-0.069015 0.146202 0.306505 209 206 201
-0.049918 0.148477 0.311002 199 194 188
-0.049896 0.149762 0.310966 210 207 202
-0.043404 0.149652 0.311517 186 181 175
-0.035518 0.151505 0.313786 204 199 195
-0.044488 0.150956 0.311523 186 181 175
-0.046143 0.151035 0.311068 204 199 195
-0.048798 0.151262 0.310993 192 187 181
-0.047490 0.151221 0.310905 201 196 192
-0.054137 0.152030 0.308481 207 203 200
-0.051857 0.154196 0.306536 188 183 179
-0.037259 0.156104 0.311694 209 204 200
-0.024602 0.157545 0.313930 186 183 178
0.051157 0.106162 0.222736 205 201 198
-0.046893 0.156978 0.307789 211 208 203
-0.024884 0.160286 0.312212 209 206 201
-0.026863 0.160434 0.311694 207 203 200
-0.035539 0.160553 0.307987 212 208 205
-0.032647 0.160751 0.308608 209 205 202
-0.021897 0.162616 0.312557 213 209 206
-0.016129 0.163344 0.313468 210 207 202
-0.045919 0.161083 0.305878 200 195 191
-0.031852 0.162437 0.309011 189 186 181
-0.033750 0.162608 0.307917 189 184 180
-0.007359 0.165168 0.314697 202 198 195
-0.037389 0.163147 0.305413 215 212 207
-0.035097 0.164198 0.307643 189 184 180
-0.018456 0.165681 0.311094 215 211 208
-0.051798 0.163600 0.301555 204 199 195
-0.018785 0.167346 0.311515 197 192 189
-0.010885 0.166806 0.311173 204 200 197
-0.037402 0.165065 0.305064 189 184 180
-0.019958 0.167806 0.309805 196 192 189
-0.022386 0.169197 0.308311 193 190 185
-0.035898 0.168300 0.304480 199 195 192
-0.010939 0.170479 0.309127 210 207 202
-0.013562 0.171254 0.307441 212 208 205
-0.046213 0.169741 0.299378 211 207 204
-0.037349 0.171040 0.301862 200 197 192
-0.008710 -0.062368 0.395432 102 104 90
-0.022810 -0.061253 0.392684 102 107 110
-0.008675 -0.060652 0.394887 194 196 175
-0.055605 -0.058107 0.383681 77 82 86
0.059828 -0.052119 0.396006 224 226 215
-0.058143 -0.048126 0.376741 221 225 228
-0.053019 -0.048030 0.378708 220 224 227
-0.057653 -0.044469 0.375553 221 225 228
-0.067333 -0.035852 0.368461 220 224 227
-0.066604 -0.032255 0.365251 225 230 234
0.004967 -0.027176 0.378324 188 179 148
-0.052343 -0.024591 0.364478 222 227 231
0.187859 -0.027162 0.363492 214 226 222
-0.026925 -0.020023 0.367826 91 91 89
0.081834 -0.018279 0.377043 200 217 198
-0.065459 -0.010199 0.351253 72 77 83
0.096071 -0.008776 0.368987 131 158 125
-0.058911 -0.001937 0.349464 226 230 233
0.145516 0.004515 0.353269 122 159 108
0.103744 0.006243 0.359826 202 222 195
-0.042753 0.017008 0.340969 215 206 177
0.197868 0.011368 0.338953 111 155 96
-0.036888 0.023445 0.339558 218 208 181
0.001117 0.057728 0.323689 188 182 146
-0.011479 0.073744 0.324223 131 127 124
-0.011359 -0.283256 0.531379 18 19 21
-0.037814 -0.269732 0.529565 51 54 59
0.293651 -0.184607 0.503859 65 69 78
0.299497 -0.181032 0.497357 42 49 57
0.185587 -0.109391 0.520361 75 80 84
0.001840 -0.084905 0.410172 215 214 209
0.186600 -0.100551 0.499474 34 44 43
-0.019684 -0.080290 0.404949 97 101 104
0.004335 -0.080795 0.406745 116 121 114
-0.016895 -0.076261 0.402643 189 187 164
0.125335 -0.077931 0.404568 209 207 146
-0.007248 -0.076265 0.403694 98 103 106
0.117895 -0.077420 0.405158 213 210 155
0.010824 -0.078100 0.419470 136 139 132
0.129060 -0.076524 0.403139 216 212 164
-0.012577 -0.073973 0.402802 105 103 82
0.003688 -0.074570 0.405171 218 221 212
0.119343 -0.073057 0.402576 53 87 195
-0.010615 -0.069577 0.398658 101 102 94
0.118824 -0.071309 0.403085 51 85 183
0.113289 -0.069748 0.401269 212 220 207
0.118399 -0.069347 0.401250 207 191 93
-0.016783 -0.066767 0.397801 111 107 72
-0.015870 -0.066321 0.395304 111 107 80
-0.018655 -0.066130 0.397693 220 216 155
0.127280 -0.067083 0.399260 216 222 196
-0.020764 -0.064506 0.395481 95 100 103
-0.007888 -0.064899 0.397789 200 200 176
-0.013540 -0.063377 0.395514 93 98 94
-0.061922 -0.060922 0.385081 218 221 226
-0.011637 -0.063022 0.395699 101 104 95
-0.056261 -0.060133 0.381964 223 228 232
-0.054469 -0.059684 0.383008 223 228 232
-0.053072 -0.059255 0.386453 217 222 228
-0.063770 -0.058409 0.381775 80 87 93
-0.056789 -0.058575 0.382796 80 85 88
-0.046130 -0.057972 0.385575 221 225 228
-0.066681 -0.056484 0.380369 218 223 226
0.163705 -0.060665 0.388103 90 124 89
0.137760 -0.060268 0.392157 112 143 111
-0.051231 -0.056531 0.384404 220 224 227
-0.055255 -0.055933 0.379083 79 86 92
0.108283 -0.059905 0.396850 174 192 176
0.110741 -0.059608 0.397416 142 163 144
-0.004838 -0.057078 0.393387 95 100 104
-0.052761 -0.055159 0.384388 219 223 226
-0.009665 -0.056532 0.392279 202 202 178
-0.054759 -0.054886 0.384568 222 226 229
-0.056474 -0.054440 0.384196 217 221 222
-0.006252 -0.056264 0.392891 103 108 112
-0.059515 -0.053736 0.381102 219 223 226
0.101723 -0.057185 0.393890 210 227 209
0.183599 -0.056702 0.382687 105 140 98
0.000666 -0.054849 0.393513 225 227 216
-0.062805 -0.051537 0.377095 219 224 227
0.083715 -0.056092 0.397974 109 139 105
0.130575 -0.055841 0.391531 105 139 102
0.186403 -0.054374 0.382044 218 225 231
0.090478 -0.054281 0.395564 111 141 107
0.149464 -0.054239 0.388493 95 126 92
0.184604 -0.053897 0.380966 97 128 94
-0.005494 -0.051853 0.390424 92 97 101
-0.045189 -0.050104 0.382377 83 88 92
-0.062523 -0.048363 0.378669 220 226 226
0.154102 -0.052470 0.385640 89 123 86
-0.046883 -0.048332 0.379512 220 224 225
0.141235 -0.051253 0.387474 92 126 91
-0.061290 -0.047054 0.378050 82 87 93
0.184139 -0.050771 0.378623 102 137 95
0.182947 -0.049322 0.378472 107 143 95
-0.062218 -0.044684 0.374115 220 224 227
-0.062021 -0.043627 0.370757 223 224 228
0.181905 -0.047920 0.377662 162 197 113
-0.069907 -0.042685 0.369836 76 81 85
-0.058274 -0.043228 0.374046 79 84 90
-0.015433 -0.044852 0.385455 95 100 103
-0.076149 -0.041353 0.369303 220 223 228
0.185246 -0.045733 0.375949 107 137 99
0.184649 -0.045519 0.375701 104 140 94
0.187437 -0.045363 0.374749 220 225 231
-0.029407 -0.042297 0.380919 95 99 102
-0.049676 -0.041087 0.375782 220 224 227
0.132345 -0.044438 0.385299 92 126 91
0.185883 -0.044413 0.374852 209 230 213
-0.051766 -0.040598 0.375737 82 87 93
-0.036195 -0.040869 0.378488 206 200 178
-0.016172 -0.041840 0.383258 100 102 101
-0.011167 -0.041868 0.383308 87 91 94
-0.063837 -0.039552 0.369974 76 84 87
0.038421 -0.042651 0.390893 224 227 216
0.098254 -0.043046 0.388603 111 143 104
-0.008935 -0.040521 0.382907 97 102 106
0.141663 -0.042858 0.382155 93 127 90
0.155864 -0.042645 0.379178 108 140 103
-0.064058 -0.037269 0.368536 84 89 95
-0.031573 -0.038476 0.378138 211 200 178
-0.076969 -0.035790 0.364366 221 225 228
-0.034798 -0.037451 0.376318 86 91 97
-0.029898 -0.036988 0.375939 205 200 180
-0.027865 -0.036875 0.377645 210 205 185
0.037993 -0.038325 0.388500 224 227 218
0.150222 -0.039295 0.379291 94 129 89
-0.075233 -0.034181 0.365094 75 82 88
0.142503 -0.038049 0.366733 107 141 104
-0.076525 -0.033839 0.364377 222 225 230
0.182745 -0.038829 0.372008 108 145 93
0.177023 -0.038737 0.372634 104 142 93
0.058889 -0.037003 0.387748 151 152 144
0.145818 -0.037787 0.378712 97 129 90
0.159341 -0.037978 0.378158 93 128 86
-0.020266 -0.034677 0.377663 92 97 100
0.155015 -0.037233 0.377170 94 126 87
0.183458 -0.037424 0.370842 165 200 116
0.054642 -0.036049 0.387785 225 228 217
0.200335 -0.037246 0.365149 169 178 185
0.179008 -0.037112 0.371879 145 181 94
-0.024614 -0.033618 0.377076 215 207 188
-0.003335 -0.034213 0.381171 225 228 219
-0.080371 -0.031269 0.362182 80 85 88
-0.076170 -0.031213 0.363537 74 81 87
-0.017013 -0.032880 0.376764 210 203 175
0.030162 -0.033920 0.385279 218 224 212
0.089377 -0.034844 0.385096 113 143 107
0.146019 -0.035548 0.378079 91 126 86
0.032838 -0.033737 0.385267 166 172 160
-0.077438 -0.029975 0.361508 217 221 224
0.181798 -0.035296 0.370046 144 182 97
0.192287 -0.035160 0.367785 215 224 229
-0.074007 -0.029799 0.362642 221 225 228
-0.028438 -0.031260 0.374030 205 200 181
0.186303 -0.034682 0.368884 102 133 92
0.177756 -0.034083 0.369582 106 143 89
-0.062035 -0.029366 0.365112 79 87 90
-0.076633 -0.028480 0.360956 73 80 86
-0.037390 -0.029895 0.371521 220 213 195
0.131239 -0.033129 0.378632 114 146 107
-0.024881 -0.029895 0.373185 206 202 191
-0.035872 -0.029174 0.370989 88 92 95
-0.032986 -0.029583 0.371626 83 91 94
0.035656 -0.031600 0.384490 225 228 217
-0.027051 -0.029590 0.372218 90 94 97
0.148906 -0.032041 0.374432 108 143 101
0.054565 -0.030449 0.383840 224 227 216
-0.057452 -0.026870 0.364714 79 84 88
0.005301 -0.028843 0.379021 225 227 213
-0.027062 -0.027567 0.371961 216 208 187
-0.074904 -0.025758 0.361309 75 83 86
-0.039928 -0.025714 0.367274 78 83 87
0.178032 -0.029707 0.367346 105 145 93
0.001135 -0.025649 0.377129 188 184 159
0.185417 -0.028553 0.365802 106 147 89
0.049140 -0.026155 0.382098 224 227 216
-0.071678 -0.022774 0.358698 222 226 229
-0.072993 -0.022081 0.357919 80 85 91
-0.037708 -0.022365 0.366267 79 84 87
0.017100 -0.024085 0.378133 173 176 165
-0.070173 -0.021314 0.357874 81 86 90
-0.006200 -0.023345 0.376413 214 217 206
0.148985 -0.025926 0.370286 111 146 104
0.191416 -0.026526 0.362715 215 227 225
0.101964 -0.024635 0.378175 116 148 107
0.184071 -0.025404 0.363934 161 199 122
0.192276 -0.025500 0.361896 90 125 83
0.193830 -0.025420 0.361754 76 103 70
0.144677 -0.024189 0.370616 113 149 105
-0.055132 -0.019709 0.361248 221 226 229
0.043123 -0.022304 0.379337 224 227 218
0.180873 -0.024382 0.363888 150 189 110
-0.022722 -0.020184 0.368674 196 192 180
-0.053567 -0.018804 0.360737 220 224 227
-0.000218 -0.020272 0.373404 226 228 214
-0.058412 -0.018470 0.360227 76 83 89
-0.037762 -0.018921 0.364755 206 202 177
-0.006851 -0.019519 0.371306 213 216 207
0.195036 -0.023254 0.359709 77 109 68
-0.040072 -0.018192 0.363704 209 201 180
0.132370 -0.020497 0.369192 97 133 89
-0.041863 -0.016467 0.361732 79 87 90
0.000400 -0.017565 0.372058 202 197 175
-0.035615 -0.016312 0.363930 83 88 91
0.084315 -0.018729 0.375851 144 158 143
-0.021836 -0.015976 0.366048 88 93 97
0.017673 -0.016495 0.373713 222 228 216
0.029606 -0.016785 0.374827 226 229 220
0.132349 -0.018421 0.369615 100 136 90
0.196267 -0.019277 0.357556 78 108 74
-0.065361 -0.013467 0.351365 77 82 86
-0.040317 -0.014124 0.360559 76 80 81
0.016357 -0.015522 0.372677 207 210 199
0.007591 -0.014928 0.371216 226 230 216
0.180132 -0.017388 0.359244 111 152 92
-0.035998 -0.012203 0.360954 79 84 88
-0.067144 -0.011346 0.351799 223 227 230
0.149250 -0.016202 0.364598 113 149 103
0.194570 -0.016641 0.355985 75 110 68
0.184946 -0.016394 0.358657 161 196 114
0.034407 -0.013238 0.373524 226 229 220
-0.071299 -0.010459 0.351236 224 228 231
-0.009722 -0.011689 0.366234 88 96 99
-0.040592 -0.010892 0.358254 83 84 86
-0.033501 -0.011084 0.360432 80 85 89
0.037533 -0.012387 0.373148 224 227 218
-0.008335 -0.011331 0.365988 225 228 219
0.027109 -0.011747 0.372176 225 228 217
0.183976 -0.014973 0.357542 113 155 92
0.014088 -0.010950 0.369566 197 200 189
-0.034461 -0.009678 0.358309 211 203 180
0.151420 -0.013293 0.363454 99 137 90
-0.066933 -0.008350 0.351661 219 224 228
0.196385 -0.013250 0.353745 106 144 97
0.013364 -0.009080 0.370027 212 213 197
-0.064503 -0.007245 0.350901 220 225 231
0.137822 -0.011521 0.364895 87 125 76
-0.089302 -0.006383 0.343533 70 78 81
-0.069096 -0.006776 0.350094 71 76 80
0.046949 -0.009208 0.372034 223 226 215
0.154299 -0.011212 0.360810 110 148 99
0.195585 -0.012165 0.353672 84 116 75
-0.076108 -0.006139 0.346615 221 226 229
-0.026008 -0.006762 0.359438 86 91 95
0.155266 -0.010456 0.360588 95 133 84
0.015630 -0.007263 0.368224 228 231 220
0.193834 -0.011253 0.353243 91 127 81
0.199599 -0.011458 0.351602 109 147 100
0.141981 -0.009790 0.363067 96 132 84
-0.008873 -0.006115 0.362927 226 229 218
0.009731 -0.005452 0.365748 228 230 217
0.178702 -0.008195 0.354451 108 152 93
0.013369 -0.004193 0.365726 228 230 219
0.178452 -0.008139 0.352835 111 153 89
-0.038334 -0.003028 0.354184 211 204 176
-0.089412 -0.001707 0.341564 219 227 229
-0.087955 -0.001606 0.341686 222 226 229
0.132431 -0.006417 0.362062 91 131 79
0.011783 -0.003507 0.365392 202 187 148
0.203372 -0.008109 0.349543 116 155 102
-0.027903 -0.002375 0.356676 87 86 81
-0.037225 -0.001884 0.354363 81 83 80
-0.008281 -0.002007 0.361037 228 229 223
0.001670 -0.001864 0.362530 227 229 216
-0.038303 -0.000896 0.353400 206 201 182
-0.026825 -0.001062 0.355788 93 93 91
0.157256 -0.005360 0.356906 115 153 102
-0.022142 -0.001077 0.356947 95 94 99
0.181687 -0.005389 0.352157 121 160 79
-0.043473 0.000339 0.351862 85 85 87
-0.028840 0.000405 0.354578 219 213 189
0.141872 -0.003108 0.358843 92 132 80
0.148457 -0.003223 0.357923 114 152 101
0.014321 0.000785 0.365325 208 209 193
0.194639 -0.003543 0.348669 83 119 75
0.154529 -0.002224 0.355188 119 157 108
-0.000239 0.001752 0.359644 227 230 213
0.202785 -0.003330 0.347141 71 107 61
0.012866 0.002003 0.362039 229 231 220
0.150146 -0.001461 0.356049 118 156 105
0.083646 0.000629 0.365142 209 227 205
-0.079465 0.003947 0.341020 223 227 230
0.159545 -0.000932 0.354225 119 158 105
-0.044327 0.003902 0.348278 74 82 84
0.151387 -0.000501 0.355826 100 140 87
0.203286 -0.001949 0.346072 81 119 70
0.005801 0.003478 0.359766 216 210 184
0.003908 0.003790 0.358971 229 230 216
0.181355 -0.000613 0.349377 163 200 120
-0.077536 0.005380 0.340977 60 65 71
0.024104 0.003801 0.362965 228 231 222
0.104444 0.002136 0.361710 172 189 171
0.156086 0.001002 0.352852 93 133 81
0.162463 0.001102 0.352434 112 155 99
0.146138 0.001735 0.355229 91 131 79
0.141883 0.002203 0.356059 98 138 88
-0.010305 0.005874 0.355787 210 204 152
0.203110 0.000297 0.343605 81 118 67
0.024975 0.005668 0.361784 228 227 209
0.102149 0.003963 0.361950 162 181 159
0.000552 0.006333 0.357185 218 211 165
0.022857 0.006081 0.361512 224 222 197
0.186632 0.001628 0.347273 168 203 121
-0.021865 0.007441 0.352077 84 89 83
0.037284 0.006476 0.361889 227 226 208
0.039887 0.006655 0.361963 228 225 208
0.135220 0.003870 0.354750 121 159 108
0.003095 0.007375 0.357201 224 221 154
0.042812 0.006571 0.360822 227 228 212
0.156597 0.003442 0.352460 91 131 79
0.046144 0.006730 0.361631 228 222 196
0.193761 0.002396 0.345076 118 162 103
0.145519 0.004299 0.354248 127 164 113
0.055321 0.006908 0.361926 229 223 207
0.137502 0.004427 0.355265 93 133 81
0.142201 0.004402 0.353843 97 135 86
0.007536 0.007991 0.357514 157 148 109
-0.030938 0.008888 0.349162 217 210 191
0.036416 0.007590 0.361072 152 131 100
-0.010976 0.008896 0.353628 197 181 122
0.016745 0.008531 0.358172 185 171 126
0.008369 0.009183 0.357482 196 187 146
-0.009445 0.009571 0.353410 221 209 157
-0.012139 0.009750 0.352983 205 193 145
0.030806 0.009084 0.359557 168 148 115
0.003233 0.009863 0.355360 227 226 178
0.023857 0.009688 0.358714 137 126 104
0.161054 0.005802 0.348893 94 134 81
0.201255 0.004625 0.342231 114 155 99
-0.005983 0.010851 0.353888 228 230 206
0.047357 0.009933 0.361001 143 123 99
0.021988 0.010525 0.358418 210 202 163
0.104352 0.008417 0.358668 187 210 182
0.162703 0.006582 0.349283 114 155 99
0.026564 0.010598 0.358892 118 109 100
0.200142 0.005274 0.342076 81 122 66
0.081067 0.009419 0.360202 183 202 182
0.147031 0.007184 0.351874 92 130 79
-0.095570 0.012536 0.331892 222 226 229
-0.076861 0.012524 0.337029 221 226 230
0.155238 0.007477 0.350021 118 158 105
0.055517 0.010847 0.360156 140 123 103
0.148437 0.008277 0.350948 117 156 103
-0.008699 0.012401 0.352336 219 210 171
-0.041709 0.013320 0.344239 88 89 84
-0.037871 0.013532 0.344734 84 85 87
0.036500 0.012539 0.357970 178 163 132
-0.031670 0.013778 0.346092 86 87 91
0.028727 0.013068 0.357895 144 123 102
0.147130 0.009673 0.349246 91 129 78
0.057894 0.012761 0.359220 182 161 134
-0.060829 0.014605 0.338604 220 224 225
0.142204 0.010157 0.350583 91 129 80
-0.049789 0.014933 0.341214 220 209 187
0.150582 0.010269 0.348842 117 157 104
0.153336 0.010588 0.348009 120 159 106
0.046615 0.014397 0.358247 192 182 146
0.148721 0.011061 0.348826 117 157 104
0.160748 0.010596 0.347040 97 138 82
0.038723 0.015123 0.356965 142 135 107
-0.030746 0.016162 0.345514 222 213 184
0.135946 0.010462 0.323757 92 130 79
-0.024588 0.016470 0.346644 223 217 191
0.026248 0.015768 0.355515 112 105 99
0.010423 0.016193 0.353138 207 200 158
0.054953 0.015844 0.357096 174 148 123
0.042663 0.016839 0.356595 128 119 102
0.031058 0.017382 0.355087 126 114 92
0.057371 0.016908 0.356498 154 128 105
-0.041903 0.018433 0.340760 82 83 85
0.025044 0.017832 0.354223 103 98 94
0.046977 0.017455 0.356943 126 117 102
0.021847 0.017991 0.353050 182 164 128
-0.037124 0.019072 0.341067 195 192 177
0.023295 0.018434 0.353558 121 112 97
0.049097 0.018134 0.355970 125 118 102
-0.044997 0.019401 0.339107 76 81 85
0.181195 0.013568 0.341067 117 161 102
0.058889 0.017963 0.355008 161 136 114
0.046804 0.019478 0.354685 105 101 90
0.056471 0.019479 0.355144 146 122 98
0.054134 0.019541 0.354600 162 138 112
0.034144 0.020375 0.353687 185 168 138
-0.010736 0.021092 0.346809 222 219 174
-0.036317 0.021347 0.338823 219 208 180
0.023766 0.021197 0.352092 118 109 100
0.060025 0.020776 0.353667 148 123 101
0.027406 0.021692 0.352057 177 162 133
0.003178 0.022265 0.348250 187 182 152
-0.033502 0.022970 0.339966 93 84 79
-0.044701 0.023231 0.337514 82 82 84
0.057804 0.021817 0.353565 153 129 105
-0.039412 0.023474 0.338932 84 81 76
0.105306 0.020503 0.351060 158 185 130
0.084809 0.022646 0.352790 198 163 121
-0.034398 0.025376 0.338191 77 82 78
-0.040477 0.025691 0.337395 211 204 176
-0.043011 0.026596 0.335837 79 81 78
0.086840 0.024466 0.348752 190 123 97
0.015151 0.026464 0.346598 172 162 126
0.052091 0.025802 0.351243 158 137 106
0.047610 0.026372 0.350376 159 140 110
0.012196 0.027191 0.346266 193 186 134
0.014451 0.027833 0.346789 116 112 100
0.057755 0.027064 0.350275 176 152 126
0.044383 0.027502 0.349645 170 154 128
0.001865 0.028376 0.344196 162 157 135
0.059064 0.027772 0.350231 135 110 90
0.051230 0.028050 0.348778 156 137 107
0.032545 0.029602 0.348551 111 108 103
0.091508 0.028100 0.347187 233 213 142
0.008906 0.030441 0.343806 171 156 117
0.011692 0.030896 0.343349 184 172 130
0.050117 0.031165 0.347688 152 131 102
0.084024 0.030046 0.346398 196 135 104
0.057944 0.031981 0.347310 153 132 105
0.022450 0.032730 0.344358 176 164 126
0.042903 0.033316 0.346560 163 152 124
0.028201 0.033752 0.345087 178 173 144
0.040029 0.033341 0.346157 114 110 99
0.082918 0.032624 0.346579 232 218 143
0.044939 0.033931 0.345648 147 134 102
0.035070 0.034517 0.344103 128 122 108
0.097549 0.033262 0.343872 213 156 127
0.025999 0.035519 0.343391 164 156 119
0.034204 0.035513 0.343622 140 134 112
0.055907 0.035852 0.345494 164 146 122
-0.003866 0.037159 0.338231 198 181 137
0.025272 0.036856 0.341966 166 158 121
-0.056476 0.037658 0.326485 214 215 122
0.006055 0.037578 0.339124 196 192 155
0.049161 0.037920 0.343819 133 112 91
0.053904 0.038428 0.343051 123 107 91
0.021140 0.039396 0.340428 203 188 155
0.036632 0.039026 0.342029 146 140 126
0.005589 0.039626 0.337795 195 191 154
0.055765 0.039176 0.341938 154 139 118
0.000768 0.040390 0.336610 188 185 152
0.027927 0.040373 0.340152 191 185 151
0.090784 0.038934 0.340616 232 218 145
0.009893 0.041378 0.337155 168 154 128
0.048184 0.040644 0.340252 141 119 96
0.028468 0.041703 0.339211 157 150 121
-0.052658 0.042614 0.324411 212 211 121
0.057572 0.041609 0.340919 140 125 102
0.184320 0.035693 0.327302 157 192 110
-0.053928 0.042605 0.322716 211 209 124
0.096536 0.040531 0.339170 195 130 100
0.023896 0.043336 0.338125 157 131 104
-0.001292 0.043625 0.334202 138 139 121
0.085807 0.041757 0.339406 201 139 114
0.008907 0.043902 0.335107 172 159 127
0.005482 0.044205 0.334240 98 98 96
0.039271 0.043880 0.339193 136 129 110
0.183601 0.037245 0.324804 160 192 107
0.186692 0.037502 0.326031 165 195 107
-0.020730 0.046008 0.328371 75 80 84
-0.051545 0.046247 0.321356 78 79 65
0.216122 0.037349 0.317085 104 151 81
0.055892 0.046207 0.338175 153 131 108
-0.051547 0.047933 0.320610 201 199 124
-0.004118 0.047898 0.329344 200 192 145
0.048874 0.047660 0.336929 156 132 106
0.034509 0.048248 0.335075 148 145 126
0.106091 0.046069 0.334722 219 194 138
0.012612 0.048977 0.331337 176 155 126
0.034470 0.049838 0.334965 144 137 121
0.017162 0.050043 0.332427 179 159 132
0.037841 0.051301 0.333921 150 134 108
0.003621 0.052371 0.328478 139 129 104
0.046031 0.052444 0.334235 183 163 130
0.029595 0.052755 0.331600 127 122 102
0.049440 0.053224 0.333184 184 160 124
0.042516 0.054228 0.331496 143 121 100
0.003821 0.055070 0.327605 162 151 121
0.024526 0.056217 0.329962 144 131 112
0.038718 0.057965 0.328946 156 136 109
0.013638 0.058517 0.325888 172 151 124
0.001230 0.058922 0.322638 124 120 108
0.027484 0.059979 0.325797 146 130 105
-0.030126 0.060969 0.317806 42 46 49
0.029794 0.060514 0.325949 170 153 127
-0.008042 0.061244 0.320268 188 182 150
0.004803 0.062179 0.322983 184 174 139
-0.011517 0.063069 0.321348 69 64 58
0.018955 0.062501 0.323308 174 158 133
0.031213 0.062725 0.324476 169 153 128
0.037404 0.063519 0.326116 189 169 134
0.028594 0.064224 0.325034 100 87 78
-0.023245 0.064893 0.318262 44 42 43
0.053036 0.063692 0.325541 179 155 127
0.017750 0.064804 0.323219 54 49 46
-0.029088 0.065697 0.319093 151 147 144
0.057916 0.064600 0.327585 130 164 114
0.058883 0.063568 0.323042 129 169 116
0.049619 0.064911 0.325329 112 96 80
-0.033029 0.066564 0.318392 38 38 38
-0.047631 0.067788 0.320106 141 140 138
0.020602 0.066224 0.324631 160 157 152
0.019073 0.066084 0.323538 157 154 149
0.055795 0.065320 0.324805 83 66 58
-0.014002 0.068344 0.323416 159 158 154
-0.028551 0.068221 0.319326 158 157 153
-0.037629 0.069402 0.320349 151 150 146
-0.046709 0.070107 0.319850 43 43 43
-0.035427 0.069711 0.320396 120 116 115
-0.022148 0.069558 0.321012 161 160 155
-0.028542 0.070210 0.321407 157 153 150
-0.060173 0.070340 0.316737 132 126 78
0.173333 0.061259 0.314126 205 208 217
0.030363 0.069331 0.324835 42 41 39
0.041046 0.069989 0.326753 133 124 81
0.044984 0.070261 0.327241 143 135 89
0.021256 0.071743 0.326727 117 112 108
0.052730 0.070342 0.326988 137 128 87
0.070669 0.069518 0.326202 76 99 53
-0.012575 0.072824 0.323645 131 127 124
0.036858 0.072129 0.327597 121 115 79
-0.039850 0.073374 0.320796 139 138 134
0.007063 0.072989 0.325478 139 136 131
0.059439 0.071211 0.326897 74 95 54
0.072293 0.070702 0.326339 140 139 83
0.054527 0.071659 0.326594 43 40 33
-0.019982 0.074928 0.324025 140 137 132
0.029102 0.074370 0.329188 149 146 141
0.036335 0.073930 0.328443 43 39 36
0.016501 0.074909 0.328020 46 41 37
0.018606 0.075126 0.327088 149 146 141
0.109313 0.071250 0.322317 69 94 54
0.097408 0.072697 0.324800 65 90 50
0.055484 0.075381 0.328351 42 39 32
-0.071172 0.078043 0.319492 38 34 33
0.094920 0.073447 0.325805 133 135 85
0.077923 0.075114 0.327823 68 91 49
0.062442 0.076095 0.328479 64 87 45
0.063542 0.076265 0.329089 64 85 46
-0.089765 0.078331 0.313214 51 42 43
-0.062367 0.079660 0.319105 66 60 60
0.052274 0.078180 0.330072 41 37 26
0.076725 0.077047 0.329278 110 118 71
-0.052262 0.080027 0.321499 46 37 38
0.103350 0.075221 0.325802 65 86 47
0.130126 0.073884 0.322226 76 87 53
0.136838 0.073293 0.320978 153 132 115
0.073149 0.078832 0.330872 62 82 45
-0.031816 0.081844 0.325234 41 35 35
0.076496 0.078906 0.330406 107 116 71
0.173518 0.071027 0.314878 108 104 105
0.126670 0.075154 0.323030 129 124 82
-0.029535 0.081871 0.324986 39 35 34
-0.052925 0.082153 0.321833 49 43 43
-0.127418 0.088364 0.317481 205 204 200
-0.072693 0.088953 0.322223 57 49 47
-0.080576 0.090089 0.321771 134 130 127
-0.059214 0.092669 0.327016 55 45 44
-0.131127 0.092822 0.312018 196 193 188
-0.066456 0.094557 0.326753 52 44 42
-0.108982 0.096065 0.318276 58 50 48
-0.119303 0.096113 0.315187 173 168 162
-0.108209 0.097806 0.318016 164 159 153
-0.122517 0.097068 0.313481 196 193 188
-0.085299 0.100856 0.325348 161 156 152
-0.112158 0.100129 0.317199 161 158 153
-0.123267 0.098850 0.310901 182 178 175
-0.121368 0.101618 0.310471 174 171 166
-0.090343 0.104386 0.322534 168 165 160
-0.124627 0.102987 0.307934 199 196 191
-0.109033 0.105378 0.314429 181 177 174
-0.125289 0.104649 0.307044 179 175 172
-0.119842 0.106251 0.308361 166 161 155
-0.115745 0.110714 0.306419 178 175 170
-0.112471 0.111278 0.305841 180 177 172
-0.036307 0.121408 0.331444 174 169 165
-0.115014 0.114817 0.304126 181 176 172
-0.115142 0.117606 0.300411 191 188 183
-0.097058 0.120531 0.310461 171 166 160
-0.082661 0.124596 0.314375 178 173 169
-0.091646 0.123836 0.310086 182 179 174
-0.088003 0.124636 0.311740 178 173 169
-0.080814 0.125082 0.313773 200 195 191
-0.063748 0.127064 0.318840 178 175 170
-0.069979 0.126735 0.316744 188 185 180
-0.062256 0.127313 0.318785 189 184 180
-0.076807 0.126731 0.315343 173 168 162
-0.081676 0.126063 0.312419 201 196 192
-0.069902 0.128122 0.316991 183 180 175
-0.091601 0.126117 0.309369 202 199 194
-0.062775 0.129007 0.318118 181 178 173
-0.080396 0.127768 0.312798 203 200 195
-0.066138 0.129584 0.316311 187 182 178
-0.077756 0.128714 0.312560 177 174 167
-0.078273 0.130184 0.311746 185 178 172
-0.090084 0.130029 0.305310 197 193 190
-0.060239 0.137451 0.313924 207 202 198
-0.068700 0.137504 0.311684 198 195 190
-0.064592 0.137920 0.311132 209 204 200
-0.078540 0.137575 0.307472 199 194 190
-0.042937 0.142635 0.316116 195 190 186
-0.046693 0.142585 0.315159 203 200 195
-0.061370 0.141990 0.311331 201 198 193
-0.064413 0.142251 0.311209 209 206 201
-0.036737 0.144525 0.316155 202 197 191
-0.063598 0.144899 0.308976 206 201 197
-0.041003 0.148392 0.314833 187 182 176
-0.048553 0.147383 0.310452 205 202 195
-0.059248 0.147457 0.308737 209 205 202
-0.066396 0.146964 0.306148 202 198 195
-0.033094 0.150217 0.316002 209 206 201
-0.055807 0.148778 0.309555 208 203 200
-0.086009 0.145979 0.297755 214 211 206
-0.033398 0.151675 0.314754 192 187 183
-0.049767 0.150451 0.308787 206 201 197
-0.060553 0.152005 0.305544 211 207 204
-0.055621 0.153410 0.306650 207 204 199
-0.029105 0.159730 0.311094 187 184 179
-0.051224 0.161221 0.304010 197 193 190
-0.014609 0.164096 0.312455 194 191 186
-0.010447 0.164734 0.312385 213 209 206
-0.024992 0.168635 0.307852 206 202 199
-0.023477 0.168211 0.307131 209 204 200
-0.036390 0.168132 0.303844 200 196 193
-0.021206 0.170356 0.309104 210 206 203
-0.043120 0.167425 0.300993 210 205 201
-0.037037 0.170767 0.303720 210 207 202
-0.040473 0.170946 0.303056 208 204 201
0.101120 0.020683 0.351534 157 178 121
0.031336 -0.102542 0.455618 74 81 87
-0.079454 -0.075540 0.391662 78 86 89
0.005386 -0.077934 0.406678 224 226 215
-0.009001 -0.076023 0.403453 131 129 78
0.121485 -0.077575 0.404801 209 199 101
0.013605 -0.075801 0.406850 224 227 220
0.114200 -0.075841 0.404513 213 220 204
-0.006152 -0.073938 0.402064 165 164 146
0.131442 -0.075165 0.402885 219 219 183
-0.017762 -0.073057 0.401117 222 221 175
0.015156 -0.074125 0.406068 225 227 216
0.117021 -0.072793 0.402199 216 200 79
-0.048094 -0.069108 0.394102 90 95 99
-0.011628 -0.070003 0.399855 98 100 97
0.119492 -0.071881 0.402949 52 84 197
0.105532 -0.071002 0.402686 111 140 110
-0.016372 -0.067070 0.398298 108 106 85
0.104623 -0.067868 0.401191 131 153 132
0.102271 -0.067134 0.401831 113 144 112
0.104398 -0.066479 0.400929 211 230 211
-0.065819 -0.061689 0.383326 216 220 223
-0.053685 -0.059543 0.386708 223 228 232
-0.015077 -0.060990 0.393966 186 166 115
0.085957 -0.062859 0.400812 209 230 211
-0.070447 -0.057782 0.380731 216 219 224
0.083412 -0.062408 0.400408 111 141 107
0.100327 -0.062141 0.399549 111 142 108
0.147319 -0.059874 0.390311 110 141 107
0.182642 -0.059573 0.383795 107 143 99
-0.012889 -0.057856 0.392731 221 216 125
0.153854 -0.055762 0.387771 91 122 88
-0.055240 -0.051542 0.381775 200 208 211
-0.048366 -0.051827 0.381202 83 88 92
0.098603 -0.054332 0.395460 111 142 108
-0.051530 -0.049854 0.378650 220 224 227
0.082749 -0.052883 0.395571 103 135 98
-0.070199 -0.048069 0.374446 74 82 85
0.132138 -0.052043 0.389139 93 125 88
0.179642 -0.051383 0.379322 105 142 73
-0.020868 -0.046938 0.383701 92 97 101
0.190640 -0.048591 0.375209 215 222 228
0.180194 -0.047197 0.378185 101 141 70
-0.051563 -0.042502 0.375421 81 86 92
0.147299 -0.046360 0.384133 108 139 105
-0.069594 -0.041403 0.370469 74 82 85
-0.063220 -0.041737 0.371304 78 86 89
-0.075807 -0.040894 0.368909 219 223 226
-0.022061 -0.042475 0.382226 88 96 99
-0.015558 -0.042147 0.383302 96 102 102
-0.008456 -0.040776 0.383048 90 98 100
0.184300 -0.042460 0.373513 104 140 94
-0.029355 -0.038900 0.378625 94 95 97
0.176979 -0.041857 0.375229 100 138 91
0.179377 -0.041639 0.374332 104 142 93
0.182526 -0.041709 0.373840 104 140 94
-0.070383 -0.036652 0.367206 221 225 228
-0.065967 -0.036448 0.368397 219 224 228
0.055331 -0.039799 0.389954 225 228 217
0.191581 -0.040483 0.371538 215 222 228
-0.035356 -0.036703 0.375583 85 90 94
-0.002395 -0.037261 0.382761 226 229 218
-0.030419 -0.034695 0.373702 89 94 98
-0.023300 -0.035254 0.377055 91 96 99
-0.072342 -0.032504 0.363374 73 78 82
0.028990 -0.035749 0.385728 224 227 218
0.043899 -0.036048 0.386938 224 227 216
0.181231 -0.037239 0.372142 149 183 97
0.205276 -0.037194 0.366098 217 224 232
-0.003243 -0.033633 0.380214 224 227 218
0.178808 -0.036215 0.371544 164 200 112
0.205009 -0.034841 0.365348 217 224 230
0.117838 -0.033181 0.379748 109 146 95
0.000014 -0.030659 0.380554 225 228 217
0.043238 -0.031248 0.384132 225 228 219
-0.079073 -0.027168 0.357855 222 226 227
-0.071663 -0.027209 0.358868 222 227 230
-0.032165 -0.027455 0.370502 210 201 172
-0.026470 -0.027512 0.371216 213 203 176
0.005965 -0.028601 0.379114 226 228 215
-0.019172 -0.027349 0.375191 201 196 176
-0.024935 -0.025512 0.371441 89 94 97
0.135024 -0.028562 0.375022 115 147 106
0.183896 -0.028498 0.365981 141 178 101
-0.052567 -0.022315 0.362745 222 226 229
0.025197 -0.024038 0.378449 226 229 220
-0.068656 -0.021169 0.358186 73 80 86
0.197849 -0.026669 0.360845 219 227 230
-0.041255 -0.021773 0.365135 75 83 86
-0.005154 -0.022939 0.374297 225 228 219
-0.083707 -0.019781 0.353548 221 225 228
-0.072122 -0.019986 0.356486 221 225 228
0.006391 -0.020801 0.374682 227 231 217
0.024764 -0.020765 0.376754 226 229 220
-0.042030 -0.017140 0.361635 76 84 87
0.021443 -0.018614 0.375650 211 214 205
-0.008046 -0.017685 0.369600 95 100 103
-0.038926 -0.016530 0.362712 86 86 86
-0.070842 -0.014940 0.354430 74 81 87
-0.006374 -0.016079 0.369644 226 229 218
0.184861 -0.020111 0.360511 158 196 119
-0.058246 -0.013079 0.359685 71 79 82
0.018329 -0.013320 0.371431 227 230 219
0.198984 -0.017022 0.355477 107 143 97
0.033901 -0.013381 0.373088 225 228 219
0.041077 -0.013702 0.373822 226 229 220
-0.080242 -0.009753 0.349163 224 228 231
-0.071365 -0.009917 0.351649 223 227 230
0.062845 -0.012886 0.373109 227 228 220
0.065550 -0.012693 0.375611 120 151 110
-0.028325 -0.007935 0.360634 82 87 91
0.180609 -0.011963 0.355791 166 202 114
0.184299 -0.012043 0.354718 163 200 122
0.196932 -0.011495 0.352607 84 114 76
0.160496 -0.010699 0.359164 94 132 83
0.185791 -0.009054 0.353778 174 209 127
-0.037816 -0.003977 0.355807 214 204 177
-0.007393 -0.004482 0.362446 203 198 176
-0.003719 -0.004107 0.362089 227 230 219
-0.006106 -0.003736 0.362853 200 198 175
0.146853 -0.006963 0.360107 95 133 84
0.141834 -0.005788 0.360501 93 131 80
-0.036882 -0.001534 0.354199 78 83 86
-0.077186 -0.000318 0.343560 222 227 230
0.095057 -0.003984 0.366081 217 227 218
0.011677 -0.000968 0.363444 228 230 219
0.099447 -0.001758 0.361470 118 156 105
0.187308 -0.004111 0.351136 112 156 97
0.158649 -0.003228 0.354864 119 157 106
-0.078211 0.002499 0.341261 223 227 230
-0.011790 0.001487 0.357256 93 97 98
0.195895 -0.002777 0.347482 73 100 67
-0.002188 0.002990 0.359072 227 230 219
0.179416 -0.000956 0.348874 113 157 98
0.195750 -0.001408 0.347471 71 101 67
0.107160 0.001880 0.361811 117 154 103
0.135206 0.001000 0.357387 119 157 106
-0.000634 0.004925 0.358158 227 231 216
0.012847 0.004844 0.360104 228 230 217
0.193808 0.000320 0.345794 113 157 98
0.001434 0.005922 0.357847 217 207 156
0.005606 0.006982 0.357951 182 142 106
0.098168 0.005514 0.359997 121 159 108
0.107278 0.005466 0.359601 119 158 103
-0.013198 0.008452 0.353662 86 91 97
-0.000538 0.008181 0.355993 228 230 225
0.195477 0.003129 0.343804 76 109 64
-0.031377 0.010363 0.347437 82 85 90
0.051396 0.009273 0.360656 170 151 121
-0.066070 0.011608 0.338146 73 78 84
-0.024393 0.012666 0.347951 224 217 189
-0.000838 0.013344 0.352497 227 231 204
0.057118 0.012260 0.359554 183 162 133
-0.069056 0.014529 0.336768 222 226 227
-0.038294 0.014000 0.343876 78 83 86
0.130697 0.010362 0.352265 119 159 106
0.142048 0.009926 0.351021 96 134 85
0.040641 0.013642 0.357809 177 168 137
0.153542 0.010205 0.346743 119 159 106
-0.004133 0.014692 0.351830 226 229 202
0.204643 0.008806 0.338871 91 135 76
0.035589 0.014553 0.356928 132 118 89
0.132605 0.012026 0.351463 107 146 93
0.045999 0.015461 0.356715 177 164 130
0.146976 0.012091 0.348307 97 135 86
-0.082379 0.018521 0.330810 223 227 230
-0.048770 0.018292 0.339095 220 208 182
0.052372 0.016713 0.357631 180 161 131
0.154435 0.013693 0.347190 119 160 104
-0.042184 0.018889 0.340042 76 81 85
-0.031573 0.018924 0.344358 80 83 88
0.197216 0.012333 0.338015 118 162 101
0.048917 0.018474 0.354978 124 116 103
0.014974 0.020153 0.351273 183 170 125
0.001646 0.020864 0.348440 225 221 174
0.022016 0.021135 0.351806 186 168 130
0.024124 0.021603 0.352244 111 104 96
-0.036630 0.022309 0.340269 218 209 178
0.098309 0.019538 0.351946 150 185 131
-0.024431 0.022588 0.342956 220 213 187
-0.042378 0.023276 0.337497 81 82 84
0.048908 0.023080 0.352076 137 126 106
0.003970 0.025451 0.346284 204 199 161
0.087791 0.024492 0.350162 188 122 96
0.041183 0.027341 0.349715 116 110 96
0.043908 0.027095 0.349399 170 154 128
0.024378 0.028251 0.347133 126 118 105
0.032143 0.029213 0.347363 101 100 98
0.019750 0.029990 0.345953 101 96 92
0.044281 0.029418 0.348100 146 130 104
0.007137 0.031031 0.342417 199 194 154
0.182290 0.025671 0.332971 123 164 104
0.058245 0.032074 0.346836 155 134 107
0.054146 0.032578 0.347082 145 127 103
0.043106 0.032927 0.345915 165 151 122
-0.054721 0.034045 0.325890 152 155 124
-0.045914 0.034784 0.330123 153 155 131
0.012030 0.034944 0.341208 185 176 133
0.085364 0.033731 0.343904 196 142 104
0.049005 0.035251 0.344757 183 165 129
-0.048192 0.036242 0.328089 67 74 80
0.031483 0.037045 0.342520 150 144 120
0.056091 0.036375 0.344711 168 146 122
0.036491 0.037256 0.343785 114 110 101
0.027122 0.038705 0.342049 185 177 141
0.005207 0.039446 0.337343 198 196 158
-0.053843 0.040076 0.325697 211 209 124
0.038077 0.040589 0.340736 107 103 92
0.031781 0.041189 0.339836 134 127 109
0.034235 0.042729 0.339031 129 123 109
0.030023 0.043101 0.338291 192 188 161
-0.075610 0.043780 0.319147 68 72 75
-0.001693 0.043614 0.334321 142 143 125
0.012746 0.043572 0.336300 151 131 104
0.038759 0.043692 0.339091 130 125 106
0.037756 0.046560 0.336648 117 111 99
0.054601 0.045780 0.335028 145 120 98
0.182993 0.040167 0.324861 103 148 79
0.028682 0.049136 0.334599 175 174 143
0.056551 0.048305 0.336334 134 109 89
0.016978 0.049635 0.332295 179 159 132
0.025801 0.051753 0.332201 177 180 135
0.055679 0.051937 0.334423 168 143 113
0.027929 0.055110 0.328911 188 190 141
0.029839 0.056728 0.329720 147 131 105
0.035603 0.057366 0.326896 155 135 108
0.044923 0.058074 0.329918 184 160 124
-0.037453 0.059751 0.319639 71 78 84
0.019085 0.060659 0.324329 163 139 113
-0.012737 0.060813 0.319269 198 189 158
0.036568 0.060898 0.326635 186 167 134
0.014514 0.062072 0.322722 166 145 124
0.043347 0.061730 0.326828 199 184 141
-0.006225 0.062351 0.320521 78 74 71
-0.046317 0.065750 0.317235 38 38 40
-0.032412 0.065970 0.316993 38 38 40
0.011183 0.066842 0.323334 48 42 42
0.022866 0.066663 0.324901 149 144 140
0.026415 0.066413 0.324376 42 38 35
0.001478 0.067805 0.323208 164 161 156
0.015593 0.067593 0.324146 70 62 59
0.173581 0.059687 0.314244 213 216 221
-0.026861 0.069500 0.320739 160 159 154
0.010527 0.069217 0.324520 159 156 151
-0.018328 0.069984 0.321984 159 155 152
0.025440 0.069308 0.325552 159 156 151
0.027516 0.069327 0.325589 161 158 153
-0.007365 0.070104 0.322955 161 157 154
0.139984 0.064524 0.316077 136 176 123
0.019507 0.072068 0.326347 157 154 147
0.051110 0.071668 0.326677 47 41 27
0.066994 0.071415 0.325918 71 93 54
0.138686 0.066550 0.317379 96 103 70
-0.024263 0.074712 0.324025 32 32 32
0.004910 0.074884 0.326223 43 39 36
0.027913 0.074526 0.328451 146 145 140
0.053555 0.073161 0.327224 139 128 83
0.079572 0.071700 0.325842 69 94 54
0.094414 0.071261 0.324788 68 95 54
0.068786 0.073322 0.327106 138 141 88
0.090579 0.070409 0.319721 150 144 86
0.119771 0.070516 0.321598 146 150 136
0.036926 0.076796 0.329726 37 37 37
0.107788 0.072575 0.323523 140 140 88
0.133930 0.070775 0.319422 93 65 43
0.059144 0.076064 0.329110 73 91 51
0.047237 0.077501 0.330684 126 114 72
-0.065115 0.079344 0.319422 62 56 56
0.100975 0.074736 0.326146 81 94 51
0.119268 0.073510 0.322831 68 89 56
-0.035371 0.080918 0.323462 37 33 32
-0.031835 0.081227 0.325187 37 31 31
-0.029484 0.081302 0.324745 39 33 33
0.167655 0.071769 0.315438 154 152 153
-0.114158 0.082994 0.310567 57 52 48
-0.020091 0.083157 0.325118 59 53 53
-0.079039 0.084708 0.318903 57 52 49
-0.076406 0.086159 0.320325 58 49 50
0.152458 0.076854 0.320158 93 102 59
