ply
format ascii 1.0
element vertex 1212
property float x
property float y
property float z
property uchar red
property uchar green
property uchar blue
end_header
-0.039448 -0.061028 0.424743 228 227 209
0.211660 -0.061839 0.396942 72 105 58
-0.033793 -0.060746 0.424304 228 226 211
0.205742 -0.061640 0.397916 109 146 92
0.214322 -0.061528 0.396397 107 144 90
-0.224597 -0.056894 0.424318 208 203 199
-0.204422 -0.057709 0.428317 215 210 206
0.209596 -0.060966 0.397779 58 86 46
-0.064598 -0.059513 0.423650 226 214 188
-0.036021 -0.060019 0.424288 214 201 167
0.206595 -0.060754 0.397835 77 114 62
0.211699 -0.060856 0.396383 69 102 55
-0.215653 -0.056175 0.424589 198 195 190
0.137548 -0.061220 0.412595 112 148 100
0.207508 -0.060164 0.396593 58 89 45
-0.206863 -0.056140 0.426532 216 213 206
0.210114 -0.059983 0.396275 67 100 53
-0.033053 -0.058877 0.423296 228 227 209
-0.029805 -0.058622 0.423693 228 229 215
0.208846 -0.059417 0.396800 106 145 88
0.015390 -0.059136 0.425347 203 195 172
-0.063419 -0.056915 0.420733 68 68 66
-0.023672 -0.058168 0.423595 226 227 213
-0.065587 -0.056945 0.422127 73 73 75
0.078272 -0.059210 0.421128 122 158 110
0.216456 -0.057845 0.392196 106 147 87
-0.087951 -0.055448 0.418971 209 202 174
-0.080916 -0.055665 0.419402 214 200 171
0.018478 -0.057895 0.425030 221 219 198
-0.032884 -0.056553 0.422782 192 185 166
-0.028260 -0.056713 0.422553 228 229 215
0.210886 -0.057675 0.395157 70 104 53
-0.072108 -0.055390 0.419451 216 205 177
0.001548 -0.057318 0.424615 227 228 210
0.207956 -0.057566 0.395359 105 144 87
-0.000936 -0.056870 0.424658 213 200 168
0.000096 -0.056706 0.424195 204 191 159
0.066320 -0.057235 0.421983 144 159 136
-0.106776 -0.053376 0.416438 224 225 227
0.212901 -0.056385 0.394123 107 146 89
-0.084684 -0.053408 0.417094 208 197 169
0.207729 -0.056168 0.395093 58 89 45
0.210556 -0.056286 0.395626 109 148 91
-0.017463 -0.055064 0.422151 228 226 211
0.029019 -0.055914 0.423989 226 225 205
-0.200327 -0.051730 0.426488 216 213 208
-0.127610 -0.051708 0.414227 51 56 60
0.006762 -0.055222 0.420950 220 214 192
0.217853 -0.055674 0.391998 78 119 59
-0.194372 -0.051467 0.427055 209 206 199
-0.046277 -0.053843 0.420069 225 227 214
-0.224932 -0.049692 0.418670 203 198 194
-0.025933 -0.054203 0.421176 230 227 212
0.005706 -0.054455 0.420415 227 225 210
0.019223 -0.054953 0.424206 227 225 212
-0.209967 -0.050230 0.423058 216 213 208
-0.018449 -0.054108 0.422201 196 181 138
0.001751 -0.054356 0.422238 228 225 206
0.023898 -0.054535 0.420929 223 218 196
0.034890 -0.054886 0.422960 228 223 204
0.066621 -0.054990 0.419257 135 153 127
-0.066445 -0.052446 0.417747 73 69 66
-0.012028 -0.053999 0.421679 226 225 205
0.037757 -0.054679 0.422239 226 220 204
-0.216330 -0.049626 0.421028 214 211 206
-0.030006 -0.053364 0.421101 208 196 144
-0.201065 -0.049894 0.424694 215 212 207
-0.200043 -0.050076 0.425705 203 200 193
0.032356 -0.054093 0.422962 150 127 96
0.000384 -0.053496 0.422586 112 99 82
-0.015215 -0.052927 0.421671 176 161 118
-0.010416 -0.053076 0.421995 157 139 103
0.009451 -0.053216 0.422259 155 134 103
0.015395 -0.053254 0.422450 158 138 111
0.017819 -0.053405 0.422268 148 131 103
0.038813 -0.053684 0.422310 134 116 96
0.042163 -0.053666 0.422111 135 118 98
0.195499 -0.053618 0.395868 126 158 82
0.211242 -0.053681 0.392720 58 90 43
0.215585 -0.053748 0.392146 78 117 60
-0.038713 -0.051860 0.419716 191 177 142
-0.018766 -0.052312 0.421661 206 199 157
0.006574 -0.052938 0.422535 172 152 119
0.064758 -0.053644 0.421224 128 156 116
0.196868 -0.053451 0.395977 173 204 126
-0.192993 -0.048604 0.425137 209 204 200
0.006761 -0.052349 0.422433 167 147 114
0.216545 -0.052896 0.391536 101 145 82
0.014044 -0.052305 0.422314 160 140 113
0.157415 -0.052987 0.404296 112 149 98
-0.202566 -0.047632 0.423285 214 211 206
-0.191371 -0.048272 0.425807 217 214 209
-0.010650 -0.051356 0.421140 161 142 102
-0.007438 -0.051309 0.420482 215 202 160
0.019299 -0.051757 0.422039 164 149 118
-0.040790 -0.050298 0.418473 227 225 202
-0.000683 -0.051236 0.421520 106 97 88
0.025463 -0.051450 0.422034 132 109 91
-0.220012 -0.046151 0.417661 182 177 173
-0.018115 -0.050494 0.419826 200 191 150
0.034609 -0.051569 0.422039 139 118 97
0.212448 -0.051743 0.391348 107 147 87
0.012181 -0.051053 0.422146 142 127 98
0.023244 -0.051093 0.421805 165 148 118
0.215794 -0.051548 0.391309 62 99 48
-0.011691 -0.050396 0.420738 185 171 126
0.018169 -0.050728 0.421389 146 132 105
-0.213944 -0.045826 0.418614 215 212 207
-0.015443 -0.049891 0.419599 160 143 99
-0.009326 -0.050153 0.420429 191 174 130
-0.191145 -0.046673 0.425395 213 208 202
-0.013325 -0.050003 0.420439 193 179 134
-0.006913 -0.049897 0.418625 216 204 162
0.001419 -0.050362 0.420967 179 160 128
-0.005082 -0.049965 0.419954 200 191 150
0.007425 -0.050195 0.421382 168 152 116
0.026734 -0.050498 0.421508 174 154 129
-0.041017 -0.048960 0.418303 199 181 135
-0.022379 -0.049463 0.419898 197 188 149
-0.048187 -0.048373 0.417172 77 76 72
-0.031923 -0.048923 0.418774 227 230 223
-0.029913 -0.048791 0.418391 213 208 150
-0.024067 -0.048995 0.419288 203 194 163
0.023286 -0.049747 0.420652 138 120 96
0.214432 -0.050289 0.390654 61 98 47
-0.010757 -0.049039 0.419912 162 140 101
0.008596 -0.049142 0.419551 188 172 136
0.139551 -0.050297 0.406340 115 152 101
-0.028616 -0.048044 0.418068 226 224 173
0.020613 -0.049368 0.421109 191 178 143
0.029798 -0.049413 0.420518 143 125 101
-0.037626 -0.047848 0.417775 190 167 115
0.018957 -0.048994 0.420737 173 159 130
0.031721 -0.049385 0.420884 143 127 104
0.035323 -0.049410 0.421193 136 115 94
0.000042 -0.048624 0.420245 106 96 84
-0.014735 -0.048202 0.419825 198 184 137
-0.025241 -0.047661 0.418824 221 215 189
-0.007508 -0.047977 0.419458 218 206 164
-0.005719 -0.048139 0.419900 218 207 162
0.027114 -0.048751 0.420803 144 124 100
0.213706 -0.049212 0.390578 106 147 87
-0.030508 -0.047412 0.418000 230 228 190
-0.018549 -0.047610 0.418707 205 198 156
0.025233 -0.048207 0.420832 166 146 121
0.009130 -0.047897 0.419790 177 163 128
0.036361 -0.048314 0.420759 179 157 133
-0.221326 -0.042546 0.416068 210 205 201
0.012156 -0.047862 0.420498 187 172 141
0.210351 -0.048558 0.390896 116 156 96
-0.061273 -0.045849 0.415376 221 211 184
0.004290 -0.047458 0.420185 165 149 113
0.015672 -0.047646 0.420046 159 149 124
0.211545 -0.049073 0.396405 113 154 94
-0.219663 -0.042482 0.416293 207 202 198
-0.084356 -0.045027 0.413293 213 202 172
-0.013475 -0.046859 0.418635 203 191 143
-0.003759 -0.047022 0.419303 169 158 126
0.017301 -0.047354 0.419480 141 131 104
-0.201853 -0.043041 0.421601 200 195 189
-0.068767 -0.044794 0.414084 220 206 177
0.006450 -0.046894 0.419674 191 177 138
-0.210190 -0.042276 0.419153 206 201 197
-0.032810 -0.045792 0.417171 227 228 222
0.002520 -0.046522 0.419652 153 136 108
0.039960 -0.046953 0.419335 136 114 93
0.029201 -0.046360 0.419171 140 119 98
0.041724 -0.046863 0.419929 137 119 99
-0.041519 -0.044567 0.412240 195 174 131
-0.003027 -0.045892 0.418891 134 126 103
0.191248 -0.047113 0.393958 122 154 78
-0.043002 -0.044797 0.415817 191 168 118
0.004000 -0.045950 0.419437 179 162 132
0.017576 -0.046054 0.419640 167 155 129
-0.133967 -0.041860 0.408114 66 71 75
0.005475 -0.045681 0.419238 164 148 114
0.012711 -0.045758 0.418936 172 158 129
0.035513 -0.046205 0.419709 172 150 127
0.037889 -0.046142 0.419301 178 157 130
-0.033069 -0.044361 0.416480 205 199 177
-0.073937 -0.043173 0.413621 72 70 71
0.188756 -0.046188 0.393293 116 152 91
-0.047889 -0.043304 0.415482 200 182 136
-0.009118 -0.044100 0.417758 210 197 152
0.026017 -0.044890 0.419044 146 130 104
-0.005196 -0.044089 0.417612 195 182 140
0.006559 -0.044432 0.418659 177 163 134
0.029514 -0.044920 0.419172 137 119 97
0.036547 -0.044964 0.419387 142 117 95
-0.195642 -0.040400 0.421583 211 208 203
-0.026494 -0.043560 0.416359 186 178 142
-0.205511 -0.039915 0.418574 212 208 205
-0.076729 -0.041913 0.412842 217 203 174
-0.018770 -0.043327 0.416787 201 194 152
-0.209823 -0.039028 0.415752 215 212 207
-0.084761 -0.041502 0.412259 214 200 173
-0.003639 -0.043597 0.417574 119 113 91
-0.001552 -0.043494 0.417689 100 93 85
0.007600 -0.043611 0.418550 141 127 100
0.196706 -0.044808 0.392100 116 154 93
-0.198946 -0.039282 0.419475 219 216 211
0.024214 -0.043783 0.418594 195 182 148
-0.129710 -0.039676 0.408506 62 65 72
-0.026100 -0.042260 0.416004 217 212 183
0.029554 -0.043439 0.418543 159 142 116
0.038439 -0.043544 0.418772 142 115 94
-0.186161 -0.039122 0.421959 216 213 208
-0.085009 -0.040539 0.411831 212 201 171
-0.073345 -0.040495 0.412434 218 205 173
-0.018058 -0.041945 0.416153 159 147 107
0.196736 -0.043909 0.391589 115 155 93
-0.204475 -0.038118 0.416923 197 192 186
-0.004655 -0.042117 0.416930 167 154 122
0.008063 -0.042346 0.417624 186 173 138
-0.041858 -0.040878 0.414311 229 230 216
-0.192250 -0.037778 0.420746 216 213 208
-0.027015 -0.041082 0.415367 152 146 114
0.033755 -0.042222 0.419041 173 147 120
0.041112 -0.042310 0.418125 142 120 97
0.012775 -0.041756 0.417651 172 163 134
0.025667 -0.041977 0.418252 154 139 110
0.036182 -0.042041 0.417573 163 139 115
-0.211197 -0.036653 0.416209 206 201 197
-0.137300 -0.037277 0.405303 64 69 75
-0.013617 -0.040657 0.415963 203 192 146
-0.142625 -0.037174 0.406035 65 68 75
-0.140198 -0.037256 0.408504 64 67 74
-0.004112 -0.040739 0.416690 113 104 87
0.001353 -0.040896 0.416948 174 157 127
-0.132282 -0.037868 0.413699 59 64 70
-0.000378 -0.040723 0.416795 106 96 86
0.017418 -0.040701 0.415476 152 145 119
0.023608 -0.041078 0.417821 178 165 133
-0.208769 -0.035804 0.414970 209 204 200
-0.203209 -0.035747 0.416690 208 203 197
0.014116 -0.039989 0.413008 163 156 130
0.029528 -0.040532 0.417556 174 157 129
0.031390 -0.040483 0.417210 179 159 132
0.027174 -0.040354 0.417677 171 155 129
-0.137902 -0.036113 0.409185 222 225 230
-0.089901 -0.036919 0.409671 69 68 64
-0.007287 -0.039206 0.415868 198 181 138
0.016426 -0.039447 0.416621 137 126 104
-0.005563 -0.038891 0.415841 169 153 119
0.041281 -0.039717 0.416811 130 115 92
0.019187 -0.039235 0.416620 109 101 90
-0.203791 -0.034307 0.416215 214 211 206
-0.073777 -0.036691 0.409366 69 67 68
-0.080079 -0.036221 0.407790 72 68 65
-0.065441 -0.036917 0.411404 74 71 66
0.009586 -0.038573 0.416627 126 110 85
-0.191073 -0.034351 0.417412 199 194 188
-0.190484 -0.034405 0.419466 217 212 206
-0.026763 -0.037465 0.413515 203 198 168
-0.192889 -0.033999 0.417742 194 189 183
-0.093922 -0.035234 0.408210 214 203 183
0.031970 -0.038359 0.416982 159 138 111
-0.070032 -0.035857 0.410419 218 206 180
-0.013305 -0.037398 0.414445 179 164 123
-0.007965 -0.037319 0.414868 199 181 141
0.003876 -0.037707 0.415395 182 168 133
-0.044940 -0.036232 0.411925 227 217 164
0.008531 -0.037591 0.416003 195 182 147
0.028715 -0.037945 0.416055 159 143 118
-0.207603 -0.032828 0.413652 194 189 183
-0.067617 -0.035724 0.410923 224 212 186
0.038137 -0.038063 0.416576 143 118 98
-0.107270 -0.034281 0.406441 220 224 225
0.013636 -0.037530 0.416200 170 159 131
0.020587 -0.037501 0.415897 140 130 118
0.188319 -0.039018 0.390364 117 155 98
-0.005763 -0.036879 0.414792 175 159 126
-0.205878 -0.032202 0.413576 210 207 200
0.001673 -0.036680 0.415144 173 160 128
-0.090723 -0.034315 0.408154 208 197 169
-0.012246 -0.036281 0.414176 176 163 121
0.027400 -0.037095 0.415795 120 108 96
0.036211 -0.037321 0.415970 134 109 89
-0.080892 -0.034277 0.408563 216 201 168
-0.004251 -0.036224 0.415108 112 100 86
0.012157 -0.036640 0.415451 184 171 136
0.017278 -0.036631 0.415984 124 117 101
0.019209 -0.036458 0.415430 107 101 89
-0.186296 -0.032364 0.418163 205 202 197
0.000435 -0.036029 0.414977 125 112 96
0.005819 -0.036130 0.414814 162 148 113
-0.092424 -0.033512 0.407464 69 65 62
-0.077213 -0.033904 0.410211 214 203 171
-0.061395 -0.034134 0.407433 219 208 180
-0.063539 -0.034298 0.412007 217 206 178
-0.205157 -0.031003 0.413719 204 201 194
-0.196186 -0.031389 0.416012 197 194 189
-0.188992 -0.031559 0.418117 217 212 208
0.027550 -0.035764 0.415188 147 131 115
-0.082900 -0.032909 0.407172 214 199 168
0.004998 -0.035149 0.414608 181 165 131
0.017827 -0.035342 0.415445 131 123 110
-0.210943 -0.030291 0.411736 212 207 201
-0.077317 -0.032720 0.407948 68 64 63
-0.075710 -0.032891 0.410601 71 67 66
0.011583 -0.034902 0.414695 139 125 99
-0.014453 -0.034280 0.412911 176 163 119
0.087491 -0.035703 0.408455 123 155 105
-0.063301 -0.032935 0.411870 72 68 65
-0.026438 -0.033607 0.411660 203 197 161
0.008910 -0.034581 0.414143 180 167 135
-0.009374 -0.034007 0.413422 175 155 118
0.014363 -0.034260 0.414339 152 140 118
0.015737 -0.034224 0.414436 120 111 96
0.090829 -0.035129 0.408235 205 218 172
-0.028699 -0.033063 0.411374 182 173 134
0.000916 -0.033620 0.413369 168 152 126
0.032074 -0.034186 0.414620 145 124 97
-0.189031 -0.029475 0.416586 208 203 197
0.006463 -0.033484 0.413955 149 132 106
-0.003810 -0.033111 0.413165 112 102 90
-0.026471 -0.032240 0.411240 180 172 136
-0.000917 -0.032621 0.412432 100 91 84
0.025175 -0.033274 0.414209 108 101 93
0.027568 -0.033238 0.413998 147 135 113
0.037827 -0.033462 0.414211 142 117 95
-0.194858 -0.027971 0.413846 218 213 209
-0.010894 -0.032026 0.412245 182 170 130
0.000639 -0.032092 0.413170 176 158 136
0.023465 -0.032452 0.414152 126 119 109
0.005076 -0.031962 0.413278 147 129 105
0.032694 -0.032491 0.416226 185 164 135
-0.086001 -0.029295 0.406170 67 65 66
-0.026008 -0.030974 0.410664 200 192 155
0.007445 -0.031750 0.413760 132 113 96
-0.187933 -0.027605 0.415460 218 215 208
-0.012161 -0.031212 0.412237 196 187 144
-0.007881 -0.030960 0.411028 174 151 117
-0.028724 -0.030449 0.410461 184 176 140
0.027769 -0.031616 0.413517 133 121 99
-0.072778 -0.029122 0.405494 79 74 68
0.021839 -0.031401 0.411755 100 93 83
0.029145 -0.031579 0.413626 168 148 121
0.193225 -0.032925 0.386269 137 166 84
0.026270 -0.030801 0.412476 131 122 105
-0.188801 -0.026145 0.416307 209 206 201
-0.077530 -0.028023 0.405355 218 202 176
-0.006585 -0.029859 0.411677 182 159 127
0.005277 -0.030156 0.412325 173 152 133
0.036293 -0.030684 0.412984 176 155 128
-0.194098 -0.025825 0.413621 210 205 201
-0.084995 -0.027738 0.403257 215 200 169
-0.071618 -0.028165 0.406412 219 208 180
-0.065631 -0.028039 0.405169 224 210 184
-0.021242 -0.029310 0.410209 199 191 152
0.014185 -0.030036 0.412397 108 98 88
0.009750 -0.029396 0.412054 134 115 98
0.033748 -0.029982 0.412802 185 164 135
0.015338 -0.029298 0.412353 113 103 91
0.008292 -0.029013 0.412727 159 141 121
0.026253 -0.029378 0.412917 145 131 104
-0.004706 -0.028567 0.411315 127 114 97
0.019488 -0.029076 0.411526 108 100 87
0.027775 -0.029122 0.412685 175 155 128
-0.081820 -0.026014 0.404467 215 202 170
-0.009500 -0.027943 0.410425 190 175 136
-0.006561 -0.027827 0.410620 182 157 127
0.001574 -0.028245 0.411103 132 118 105
0.022035 -0.028230 0.412067 145 133 111
0.080269 -0.029250 0.408752 228 206 185
-0.211886 -0.022888 0.406828 191 186 180
-0.020394 -0.027151 0.408869 161 145 109
0.020580 -0.028135 0.411991 125 114 94
0.018687 -0.027921 0.411491 154 143 123
0.024265 -0.027987 0.412443 157 141 116
0.035906 -0.028027 0.411834 187 168 138
-0.087549 -0.024899 0.403190 64 65 67
0.000972 -0.027099 0.410663 100 95 89
0.037422 -0.027655 0.411126 151 130 103
-0.028275 -0.026287 0.408455 196 190 156
-0.188047 -0.022632 0.412911 208 203 199
-0.059537 -0.025192 0.405997 66 70 69
-0.075112 -0.024666 0.406723 217 202 171
-0.003845 -0.025968 0.410214 162 148 121
0.015066 -0.026535 0.411301 132 124 101
0.036166 -0.026975 0.411630 183 164 134
-0.077003 -0.024264 0.404567 215 200 177
0.038717 -0.026829 0.411178 159 142 116
-0.192048 -0.021487 0.410347 215 212 207
-0.012950 -0.025488 0.409061 181 169 127
0.027747 -0.026132 0.410115 139 122 94
-0.070485 -0.023877 0.403230 65 64 69
0.010999 -0.025809 0.411164 139 131 108
0.023332 -0.025942 0.410631 164 148 122
0.034725 -0.026259 0.411067 142 120 96
0.194511 -0.028365 0.383734 168 197 117
0.029621 -0.025859 0.411211 160 140 115
-0.008149 -0.024917 0.408998 173 149 121
0.017387 -0.025559 0.410858 108 100 89
0.031881 -0.025760 0.411021 173 152 125
-0.020838 -0.024438 0.407600 159 145 108
0.195886 -0.027839 0.383591 135 169 95
-0.014399 -0.024416 0.408252 176 164 124
0.040801 -0.025519 0.410533 124 149 107
-0.093109 -0.022349 0.402731 226 218 205
-0.012251 -0.024330 0.408865 103 96 86
0.007154 -0.024721 0.410171 108 95 86
0.019502 -0.024938 0.410070 153 143 116
0.038856 -0.025240 0.410400 122 104 84
0.013340 -0.024472 0.409607 172 165 137
-0.005082 -0.024049 0.408846 177 164 130
0.017962 -0.024479 0.410352 106 98 85
-0.074076 -0.022108 0.402973 65 64 62
0.024313 -0.024572 0.411973 142 125 97
0.009257 -0.023863 0.409875 117 108 93
0.010749 -0.023796 0.409669 162 155 129
0.023161 -0.024056 0.409211 139 122 96
-0.008407 -0.023323 0.408293 101 94 88
0.031330 -0.024131 0.410737 142 122 95
0.014201 -0.023336 0.409711 137 131 105
-0.089574 -0.020445 0.402165 69 64 60
0.037045 -0.023326 0.409991 135 113 90
-0.071655 -0.020725 0.402770 69 64 61
0.193577 -0.025383 0.382705 127 159 84
-0.007470 -0.022035 0.408025 155 140 119
0.010188 -0.022539 0.409379 132 121 101
0.024132 -0.022597 0.409349 146 129 103
-0.086899 -0.019945 0.402715 66 66 66
0.027555 -0.022553 0.410022 175 155 128
0.039562 -0.022815 0.409760 134 116 94
0.081147 -0.023039 0.405900 239 225 196
-0.137536 -0.018120 0.397186 221 225 228
-0.083218 -0.019539 0.401392 215 203 181
-0.006397 -0.021338 0.407745 178 162 129
0.012208 -0.021700 0.410145 159 153 127
-0.199447 -0.016746 0.407292 199 194 188
0.036902 -0.022005 0.409210 167 146 119
0.031074 -0.021699 0.409553 177 160 134
-0.206428 -0.016365 0.404532 193 188 184
0.007211 -0.021057 0.408411 104 99 93
0.035192 -0.021652 0.409519 146 125 98
0.019920 -0.020571 0.409014 148 136 114
-0.022453 -0.019484 0.405797 189 180 141
-0.004742 -0.020036 0.407510 178 165 133
0.100782 -0.021729 0.402065 205 219 170
0.021527 -0.020032 0.408571 138 124 98
0.036619 -0.020265 0.408423 178 158 131
-0.003548 -0.019397 0.407657 162 151 121
0.070412 -0.020626 0.405880 239 223 197
0.028074 -0.019823 0.408958 141 121 94
-0.002031 -0.018951 0.406674 117 110 92
-0.190811 -0.014777 0.408920 212 207 203
0.018752 -0.019211 0.408108 120 111 94
-0.021579 -0.018167 0.404739 160 146 107
-0.207970 -0.013741 0.403318 190 183 177
0.034818 -0.019159 0.407675 173 152 123
-0.018339 -0.017831 0.405783 178 166 128
0.037517 -0.018984 0.408070 141 121 96
0.189982 -0.021448 0.381884 121 161 99
0.021590 -0.018593 0.407694 163 149 122
0.017680 -0.018230 0.408113 140 132 113
0.026575 -0.018263 0.407475 177 156 127
-0.008094 -0.017269 0.405763 173 154 122
0.008324 -0.017601 0.407280 161 156 134
0.023683 -0.017931 0.408067 148 133 104
0.033479 -0.018236 0.408337 138 120 96
0.099266 -0.019244 0.400843 148 166 116
-0.153453 -0.013592 0.393699 70 73 78
0.027873 -0.017684 0.407188 171 150 121
-0.207040 -0.012412 0.402300 208 205 200
-0.208713 -0.012151 0.402430 188 183 177
-0.029965 -0.016054 0.403397 186 183 152
0.017918 -0.017034 0.407162 130 121 104
0.035682 -0.017424 0.407586 174 154 127
0.031921 -0.017067 0.406785 142 124 100
-0.209974 -0.011664 0.402271 192 187 181
-0.009081 -0.015936 0.405055 129 112 92
0.007901 -0.016312 0.406470 140 134 108
0.026122 -0.016763 0.406588 164 145 112
0.030288 -0.016619 0.407339 177 157 130
-0.208495 -0.010813 0.401889 208 205 198
0.004878 -0.015591 0.406371 158 152 128
0.028362 -0.015960 0.406683 156 137 107
-0.022969 -0.014898 0.403398 158 149 110
0.017686 -0.015661 0.406877 116 110 96
-0.209901 -0.010340 0.401611 195 190 184
0.098624 -0.016848 0.399618 129 158 102
0.034036 -0.015464 0.406786 111 96 77
-0.016602 -0.013921 0.402933 124 118 96
-0.023875 -0.013779 0.403346 194 189 151
-0.007464 -0.014029 0.403993 191 177 140
-0.194598 -0.009524 0.404464 211 208 203
-0.014675 -0.013648 0.403986 154 140 113
-0.000254 -0.013867 0.404859 177 171 137
-0.205809 -0.009022 0.403076 201 196 190
-0.018214 -0.013310 0.403419 181 168 126
-0.030609 -0.012666 0.401506 185 181 152
0.025232 -0.013931 0.406023 186 171 132
-0.207006 -0.008329 0.400581 212 207 201
-0.005959 -0.012937 0.404100 194 180 143
0.034956 -0.013353 0.405628 157 141 118
-0.014291 -0.012185 0.402920 164 143 112
0.006216 -0.012512 0.404446 161 157 130
0.018547 -0.012834 0.403721 118 109 94
-0.000833 -0.012230 0.404011 159 151 115
0.008850 -0.012387 0.404475 127 120 101
0.029663 -0.012731 0.406051 113 96 80
-0.197344 -0.007612 0.402019 200 195 191
0.034144 -0.012306 0.405272 133 115 95
0.020135 -0.011598 0.405259 161 147 120
-0.010471 -0.010763 0.402439 169 146 115
0.021106 -0.011507 0.401632 174 159 128
0.035501 -0.011773 0.404918 156 136 111
0.018783 -0.010865 0.405313 126 115 97
-0.156400 -0.006873 0.389699 161 165 151
-0.005396 -0.010160 0.402952 173 157 123
-0.192278 -0.005741 0.402669 213 208 204
-0.138811 -0.006764 0.389089 173 173 145
-0.137538 -0.006847 0.390820 175 176 145
-0.018169 -0.009655 0.401500 190 178 136
-0.011383 -0.009685 0.402180 183 159 131
0.024536 -0.010426 0.404302 155 138 110
0.028370 -0.010381 0.404336 145 127 107
-0.121122 -0.006849 0.387022 162 162 136
-0.120679 -0.006873 0.392232 168 168 140
-0.151672 -0.005906 0.387992 64 66 65
-0.100285 -0.007033 0.377642 168 167 139
0.008898 -0.009444 0.403757 116 109 93
0.029994 -0.009785 0.404746 141 123 103
0.016883 -0.008809 0.402712 99 92 84
-0.105214 -0.006001 0.390714 63 64 66
-0.010034 -0.008230 0.401606 162 139 108
0.019157 -0.008711 0.404178 125 114 92
-0.091184 -0.006175 0.390092 61 62 67
-0.018291 -0.007603 0.400807 186 174 132
0.032644 -0.008811 0.403245 118 102 86
0.000027 -0.007902 0.401879 182 171 141
-0.207286 -0.002795 0.398414 196 191 187
-0.005402 -0.007371 0.401659 196 183 149
0.034236 -0.008154 0.403165 147 132 111
-0.209127 -0.002246 0.397907 213 210 205
0.037129 -0.007784 0.403617 130 111 94
0.020787 -0.007340 0.403654 184 174 139
-0.016158 -0.006422 0.400574 147 128 96
-0.024187 -0.006034 0.399249 150 139 107
0.029573 -0.007200 0.401050 127 106 89
-0.006602 -0.006039 0.401374 194 181 149
-0.033101 -0.005256 0.397611 123 122 101
0.010029 -0.006248 0.401994 114 106 93
-0.198757 -0.001214 0.399720 196 193 188
-0.016879 -0.005304 0.399885 151 135 102
-0.015584 -0.004915 0.399628 168 149 117
0.026446 -0.005883 0.402894 124 101 85
0.035114 -0.005990 0.402441 147 132 111
-0.034368 -0.004118 0.395997 193 179 134
0.025074 -0.005450 0.402442 136 114 91
0.028334 -0.005534 0.401793 153 132 113
0.014057 -0.005201 0.402080 96 89 79
0.032473 -0.005492 0.402541 122 105 89
0.008328 -0.004587 0.401256 105 99 87
-0.003780 -0.004280 0.400296 155 136 106
-0.202793 0.000478 0.397427 206 203 196
-0.030902 -0.003363 0.397703 193 189 154
-0.001599 -0.004018 0.400907 188 178 143
-0.154552 -0.000497 0.386173 67 66 71
-0.104181 -0.001462 0.391320 64 62 47
0.036551 -0.004665 0.401873 132 115 95
-0.008901 -0.003588 0.399071 176 157 127
-0.144040 -0.000050 0.387204 222 218 119
-0.110856 -0.000813 0.390693 216 214 131
-0.033427 -0.002420 0.396587 120 123 102
0.024262 -0.003779 0.401067 167 145 121
0.005335 -0.003199 0.399726 129 122 104
0.014942 -0.003267 0.400354 135 128 112
0.017496 -0.003407 0.400083 138 127 105
0.033536 -0.003637 0.401882 122 107 88
-0.204932 0.002005 0.395064 190 187 180
-0.004079 -0.002594 0.399626 150 126 98
0.035637 -0.003441 0.400193 162 146 120
-0.122250 0.000314 0.389572 69 68 47
0.037764 -0.003397 0.400039 133 121 97
0.018630 -0.002550 0.400949 166 152 125
0.029528 -0.002787 0.401397 152 131 112
-0.002079 -0.002105 0.399571 177 164 132
-0.034781 -0.001301 0.396510 198 181 137
-0.125027 0.001008 0.390934 70 70 46
-0.011142 -0.001071 0.398360 185 165 138
-0.126373 0.001637 0.389703 67 65 50
-0.007371 -0.001001 0.397917 173 153 126
-0.101358 0.001253 0.390439 215 214 121
-0.019662 -0.000488 0.397060 104 91 74
-0.103522 0.001423 0.390195 218 215 122
-0.000281 -0.000954 0.399239 182 176 140
-0.033841 0.000010 0.395971 127 126 105
0.012741 -0.001012 0.400092 103 97 85
0.028661 -0.001333 0.399706 130 107 89
-0.129465 0.002178 0.387755 139 139 103
-0.141121 0.002584 0.386608 75 73 52
0.015003 -0.000380 0.399804 121 112 97
-0.016931 0.000381 0.397389 135 116 86
0.008807 0.000074 0.400013 136 130 114
-0.154413 0.003498 0.383913 219 215 118
0.020010 -0.000317 0.399636 166 149 121
-0.008013 0.000553 0.398094 160 141 111
-0.128633 0.003196 0.387745 66 68 57
-0.125433 0.003321 0.389337 63 67 68
-0.106530 0.002935 0.388954 179 177 128
-0.021150 0.001174 0.395238 166 150 117
0.000690 0.000596 0.398800 182 180 142
0.030275 -0.000107 0.399147 150 132 112
-0.098786 0.003058 0.389192 90 82 35
-0.033302 0.001804 0.395007 129 129 105
0.003114 0.001156 0.398176 140 136 111
-0.142387 0.004402 0.385660 187 187 137
0.008071 0.001302 0.398668 101 95 83
-0.131208 0.004583 0.385357 217 214 119
0.020734 0.001280 0.398375 150 128 104
-0.203370 0.006552 0.393522 208 205 200
-0.011422 0.002077 0.396921 160 139 108
-0.019067 0.002539 0.395751 178 160 124
-0.015826 0.002360 0.396139 168 147 116
-0.202283 0.007148 0.394441 198 193 189
-0.155884 0.005722 0.382652 67 71 72
-0.009624 0.002657 0.396385 178 159 129
0.072008 0.000774 0.396321 236 222 187
0.011431 0.002275 0.398294 90 83 73
-0.149614 0.005929 0.384154 218 214 114
-0.017002 0.003294 0.395579 141 122 90
-0.021781 0.003439 0.394878 177 159 123
0.019985 0.002535 0.398594 170 148 124
-0.122351 0.005695 0.384950 216 213 120
0.085211 0.001330 0.394466 236 220 194
-0.143134 0.006508 0.384165 217 213 116
-0.011164 0.003682 0.396610 160 141 109
0.031608 0.002818 0.398013 139 114 92
-0.133561 0.006825 0.387918 67 68 52
-0.023979 0.004417 0.393070 178 160 124
-0.140502 0.007188 0.384833 70 66 55
-0.130987 0.006809 0.384175 73 70 63
-0.123446 0.006561 0.384805 66 66 54
-0.007198 0.004195 0.396537 154 133 106
0.004980 0.003991 0.396927 120 117 102
-0.121145 0.006679 0.384188 65 65 53
-0.009669 0.004663 0.395454 179 159 132
-0.002185 0.004386 0.396994 150 138 112
-0.142276 0.007494 0.384675 61 59 44
0.008853 0.004661 0.397684 106 100 86
-0.017669 0.005420 0.394931 146 127 97
0.023053 0.004433 0.397844 139 115 91
-0.203731 0.010070 0.391367 194 189 183
-0.025850 0.006040 0.393160 125 115 88
0.000393 0.005323 0.396104 198 197 166
-0.024121 0.006022 0.391312 181 165 129
-0.008860 0.005925 0.394264 159 139 112
-0.011788 0.006306 0.394588 163 144 114
-0.005943 0.006220 0.395565 141 117 93
-0.156614 0.009392 0.381157 77 76 46
-0.144120 0.009195 0.383006 75 73 61
-0.142398 0.009220 0.383553 77 73 61
-0.140301 0.008985 0.382702 64 64 56
-0.034764 0.007107 0.392172 116 119 102
0.009031 0.006325 0.397352 139 134 114
0.035096 0.005767 0.396469 132 107 87
-0.010041 0.006823 0.394516 177 158 128
-0.018170 0.007315 0.393986 145 125 98
-0.013237 0.007098 0.393914 173 154 124
-0.153927 0.010345 0.381701 220 216 116
-0.123545 0.009848 0.384170 64 66 65
-0.147788 0.010812 0.382089 218 215 112
-0.144395 0.010752 0.378534 217 213 113
-0.019339 0.008303 0.392935 180 164 130
-0.125609 0.010497 0.385008 217 212 112
-0.096734 0.010135 0.386354 213 211 110
0.001705 0.008084 0.395461 167 166 135
-0.200096 0.012988 0.390227 193 188 182
0.012005 0.008117 0.395168 131 119 97
-0.027696 0.008982 0.392649 185 179 143
0.036662 0.007897 0.395493 143 126 100
0.009045 0.008355 0.395627 133 126 108
0.035417 0.007802 0.395818 148 123 101
-0.033549 0.009454 0.390960 197 194 163
0.015739 0.008559 0.395446 150 130 103
0.031086 0.008349 0.396209 189 164 133
-0.156651 0.012211 0.379645 66 67 61
-0.035347 0.009787 0.391554 116 116 104
0.006475 0.009222 0.395366 102 94 83
0.013708 0.008961 0.395327 156 140 114
0.011667 0.009472 0.396364 149 134 111
-0.126557 0.012344 0.385007 68 68 66
-0.101849 0.011904 0.385113 216 213 116
-0.009244 0.010017 0.392708 150 126 100
-0.103198 0.011983 0.384940 218 215 120
-0.037075 0.010748 0.390140 194 185 144
0.004155 0.009867 0.394614 115 109 93
0.028477 0.009288 0.395332 190 167 133
0.032071 0.009441 0.395272 171 146 115
-0.002073 0.010312 0.394249 141 125 99
-0.003414 0.010591 0.393063 145 123 99
0.034553 0.009771 0.395341 159 134 104
0.013410 0.010358 0.393502 144 128 102
0.020299 0.010369 0.395256 163 139 115
0.025920 0.010297 0.395305 172 147 117
0.002690 0.011069 0.393510 150 147 114
-0.027453 0.011986 0.390651 121 115 91
0.024896 0.010905 0.394694 157 133 105
-0.102488 0.013661 0.385618 66 67 59
-0.045794 0.012416 0.388049 189 177 139
-0.001493 0.011509 0.392357 168 169 127
-0.198151 0.016587 0.390184 209 204 200
-0.008289 0.011955 0.392177 162 141 114
0.033202 0.011026 0.394595 175 152 120
-0.010072 0.012203 0.391763 146 125 96
0.010765 0.011745 0.393559 144 129 108
-0.005459 0.012167 0.391338 172 151 124
-0.028863 0.012836 0.390170 189 184 146
0.015035 0.012036 0.391536 147 130 104
0.025192 0.012426 0.393794 161 136 105
0.021362 0.012586 0.393700 167 143 115
-0.001167 0.013259 0.390441 177 180 133
-0.122023 0.015853 0.382063 64 67 74
-0.007027 0.013552 0.393012 153 132 105
-0.020619 0.013973 0.390616 189 173 137
-0.016959 0.014207 0.390787 127 106 87
0.032424 0.013300 0.393715 200 181 141
-0.003847 0.014151 0.391502 161 137 111
-0.198188 0.019066 0.388476 199 194 188
-0.038081 0.015138 0.388153 195 186 145
-0.032600 0.015782 0.388048 187 181 147
0.023578 0.014737 0.392785 186 163 129
-0.009426 0.015604 0.389977 174 153 126
-0.036915 0.016302 0.387318 132 131 113
-0.035091 0.016165 0.387400 192 188 163
0.020436 0.015058 0.392145 164 143 116
0.028022 0.014922 0.392298 189 169 132
-0.013607 0.016089 0.389462 108 88 79
-0.024914 0.016426 0.388403 189 175 138
-0.015939 0.016652 0.389238 123 103 92
-0.037955 0.017289 0.386998 193 189 154
0.026399 0.016079 0.391882 167 141 108
-0.031765 0.017337 0.387070 199 193 159
0.021069 0.016390 0.391835 153 129 103
-0.017425 0.017421 0.388484 165 148 118
-0.000510 0.017022 0.389013 181 183 134
0.003278 0.017329 0.390008 132 114 92
-0.198152 0.022175 0.386872 194 191 184
-0.027611 0.018088 0.386708 146 135 105
-0.036779 0.018618 0.386307 128 131 114
-0.024662 0.018458 0.387244 191 177 138
0.024849 0.017761 0.391147 182 157 126
-0.038336 0.019059 0.385425 184 177 148
-0.003850 0.018523 0.388857 114 101 85
0.026435 0.017754 0.390205 176 152 118
0.000276 0.018948 0.389352 125 114 94
-0.196633 0.023742 0.385147 207 204 199
-0.039858 0.020193 0.385296 203 195 159
-0.028689 0.020086 0.386630 116 110 86
-0.037268 0.020676 0.385375 118 116 101
-0.015170 0.020285 0.386723 169 149 124
0.024481 0.019381 0.390296 177 153 119
-0.004035 0.020191 0.388795 149 136 117
-0.029168 0.021056 0.385308 112 107 87
0.014096 0.020355 0.389045 151 131 104
-0.030453 0.021723 0.385342 181 176 144
-0.007624 0.021407 0.387359 129 106 90
0.019326 0.020781 0.389530 162 137 106
-0.002178 0.021400 0.387731 101 89 75
0.025677 0.020852 0.389585 194 175 135
0.013379 0.021720 0.388097 171 151 124
0.033962 0.021328 0.389587 196 179 136
-0.038535 0.022903 0.383270 123 125 111
-0.169023 0.025923 0.375419 56 59 66
-0.032965 0.023688 0.383164 198 193 161
-0.018736 0.023453 0.384532 173 152 125
0.003883 0.022979 0.388197 160 142 118
0.006816 0.023267 0.388488 175 154 127
-0.004630 0.023671 0.386406 138 121 103
-0.165647 0.026512 0.370236 79 82 87
-0.036503 0.024550 0.383637 193 189 164
0.031275 0.023024 0.388005 178 154 120
-0.034626 0.024530 0.383554 180 174 142
0.000689 0.024085 0.385589 138 122 99
0.012051 0.023947 0.387648 184 163 134
-0.002130 0.024166 0.386167 130 115 96
0.019625 0.023710 0.387296 175 152 120
0.035204 0.023443 0.387366 145 129 96
-0.025800 0.024905 0.382425 190 178 138
-0.149743 0.027059 0.372089 85 88 95
-0.131691 0.027053 0.374672 75 78 83
-0.005481 0.024980 0.385592 138 122 106
0.033992 0.024472 0.388133 182 155 125
-0.011991 0.025438 0.385157 180 156 132
-0.000869 0.025117 0.386138 156 141 120
0.022742 0.024683 0.387635 174 154 119
-0.059999 0.026718 0.379658 64 65 69
0.007147 0.025380 0.386132 154 137 111
-0.033402 0.026270 0.382502 192 186 154
0.029007 0.025065 0.385498 181 158 124
-0.018676 0.026437 0.383985 165 145 121
-0.081296 0.027817 0.378476 72 75 80
-0.085240 0.028054 0.378606 74 78 81
-0.192469 0.031454 0.381283 193 190 183
-0.001454 0.026786 0.383464 155 142 123
-0.068899 0.028205 0.379381 70 74 77
-0.067013 0.028296 0.381924 76 80 83
-0.047027 0.027831 0.379951 192 183 152
-0.082672 0.028633 0.378673 49 50 54
-0.054824 0.028097 0.379503 195 192 183
-0.045237 0.028325 0.383008 191 184 155
0.031175 0.026533 0.386813 183 157 130
-0.078268 0.028908 0.379233 37 38 42
-0.070292 0.028929 0.378816 39 40 44
-0.021051 0.028049 0.382433 166 151 128
-0.072248 0.028889 0.378105 39 40 44
-0.025800 0.028241 0.382553 169 158 126
-0.067959 0.029075 0.380341 35 36 40
-0.014907 0.028156 0.383167 141 120 103
-0.079263 0.029471 0.379413 34 34 36
-0.064252 0.028973 0.378714 36 37 41
-0.169512 0.031123 0.370618 138 131 105
0.016282 0.028047 0.385764 193 174 141
0.018995 0.028368 0.384123 190 177 143
0.030964 0.028132 0.385706 172 148 122
-0.045921 0.029791 0.381579 67 58 49
-0.039982 0.029425 0.380716 52 48 47
-0.032480 0.029301 0.380938 49 45 44
0.003443 0.028594 0.383884 137 124 105
0.021217 0.028385 0.385144 197 184 150
-0.038567 0.029676 0.381455 51 47 44
-0.030653 0.029571 0.382586 45 41 40
0.014067 0.028784 0.386158 170 151 121
-0.172690 0.032313 0.372287 53 46 38
-0.016939 0.029503 0.383151 49 41 39
0.033355 0.028530 0.386158 152 129 111
-0.143547 0.032398 0.376867 40 43 48
0.237242 0.020371 0.353404 88 93 115
-0.155557 0.032883 0.374987 101 83 83
-0.042665 0.030709 0.382661 46 42 39
-0.005014 0.029827 0.384462 53 45 42
-0.107720 0.032138 0.378816 40 39 34
-0.026750 0.030624 0.382683 44 40 37
0.006389 0.029828 0.384653 59 50 45
0.034272 0.029822 0.384947 62 49 41
-0.134537 0.033558 0.378079 134 130 82
-0.132930 0.033583 0.378224 132 128 81
-0.039100 0.031940 0.383417 154 151 146
0.032223 0.030433 0.385714 57 44 36
-0.057956 0.033154 0.381342 152 149 144
-0.006614 0.032124 0.383914 139 136 131
-0.158207 0.035319 0.376178 122 93 95
-0.062491 0.033667 0.382033 40 36 35
0.058162 0.030548 0.384272 55 82 47
-0.146962 0.035322 0.377043 56 57 62
-0.136144 0.035353 0.378373 124 119 81
-0.103430 0.034542 0.379858 108 103 65
-0.118793 0.035069 0.377929 48 46 34
0.024986 0.030797 0.372299 118 109 76
-0.037480 0.033850 0.384038 47 43 40
0.013928 0.032761 0.386355 39 36 29
0.241494 0.023289 0.351862 77 79 100
-0.103159 0.035378 0.381119 117 112 72
0.053045 0.031890 0.386485 128 128 78
-0.051996 0.034557 0.383665 40 39 37
-0.157581 0.036693 0.377393 96 74 76
-0.127928 0.036327 0.379975 127 122 93
-0.125972 0.036367 0.380492 42 41 37
-0.106304 0.036131 0.381705 76 74 53
-0.124428 0.036638 0.380744 124 120 91
-0.029881 0.034621 0.384418 148 145 140
-0.143326 0.036971 0.379352 110 111 115
-0.110958 0.036393 0.381392 44 41 34
0.015665 0.033819 0.387517 55 48 32
-0.172788 0.037542 0.375638 53 48 42
-0.135730 0.037514 0.384383 113 108 70
-0.132423 0.036915 0.379633 110 104 68
0.020234 0.033984 0.387683 49 42 26
0.030015 0.033874 0.387565 46 38 25
-0.166577 0.037909 0.377359 104 96 83
-0.135590 0.037424 0.380715 119 114 85
-0.120675 0.037274 0.382560 122 117 77
-0.101568 0.036820 0.382273 114 110 75
-0.001300 0.034817 0.387209 145 141 138
-0.172349 0.038640 0.377137 113 105 86
-0.145751 0.038318 0.380020 96 99 106
0.001432 0.035546 0.387590 147 144 139
-0.119575 0.038127 0.382868 61 55 31
-0.104108 0.037935 0.382990 117 113 78
-0.020860 0.036153 0.386896 49 45 42
-0.129250 0.038438 0.379566 58 53 31
-0.113615 0.038412 0.382851 51 47 36
-0.167647 0.039638 0.379464 55 52 47
-0.108150 0.038432 0.381623 50 46 37
-0.098941 0.038507 0.383920 55 50 28
-0.097153 0.038422 0.383661 95 90 61
-0.149293 0.039627 0.380317 52 50 51
-0.135225 0.039438 0.381784 121 114 72
-0.120400 0.039189 0.383048 122 119 88
-0.048866 0.037537 0.383879 46 42 39
-0.004333 0.036959 0.388374 133 128 124
-0.034927 0.037966 0.387545 48 43 40
-0.145277 0.040169 0.382301 109 112 119
0.020700 0.036826 0.389586 48 41 23
-0.022948 0.037892 0.387435 49 44 41
0.025591 0.036857 0.389574 46 40 24
0.044184 0.036014 0.388268 60 75 44
0.068064 0.035132 0.385995 58 75 43
0.237247 0.026489 0.350200 174 174 174
-0.096572 0.039557 0.384812 48 45 40
0.012601 0.037526 0.389893 102 95 67
0.030410 0.036973 0.389985 46 40 26
-0.097985 0.039919 0.384199 110 105 67
0.063888 0.035842 0.387125 60 75 42
-0.191931 0.041624 0.377403 213 208 204
-0.165585 0.041327 0.380665 112 108 96
-0.147995 0.041194 0.383073 80 83 88
0.039459 0.037184 0.389572 60 74 41
-0.135332 0.040892 0.382972 60 55 36
-0.108608 0.040591 0.385377 103 101 78
-0.098977 0.040292 0.385885 114 106 70
-0.130629 0.041120 0.384251 59 53 41
-0.106571 0.040186 0.382112 111 106 76
-0.007311 0.038503 0.389092 141 136 132
0.016983 0.038150 0.390897 107 96 64
0.078601 0.035767 0.385712 134 127 75
-0.131955 0.041215 0.384102 107 103 76
0.014276 0.038363 0.391486 96 87 58
0.098837 0.034668 0.380690 61 78 44
-0.101670 0.040802 0.385716 113 105 69
-0.041367 0.039714 0.388920 53 48 45
-0.035261 0.039738 0.388627 128 123 117
0.053525 0.037001 0.388305 62 73 41
0.175539 0.030988 0.363767 69 64 61
-0.164224 0.042221 0.380706 56 51 48
-0.053643 0.040403 0.388329 54 49 45
-0.173012 0.043018 0.381394 185 180 174
-0.150097 0.041964 0.377485 51 47 44
-0.154385 0.042891 0.383116 51 47 46
-0.144147 0.043394 0.386735 53 48 44
0.013732 0.040102 0.392697 94 87 58
-0.169025 0.043538 0.382007 118 111 103
-0.016455 0.040876 0.390636 129 124 118
-0.130344 0.043534 0.387502 49 46 41
0.018996 0.040390 0.393211 53 46 28
0.024041 0.040181 0.392634 45 39 27
-0.184977 0.043916 0.378056 199 196 189
-0.049103 0.042083 0.390217 53 48 44
-0.018157 0.041550 0.391501 49 44 40
0.054032 0.039329 0.390491 57 72 39
-0.121121 0.043888 0.388411 49 44 40
-0.113827 0.043703 0.386414 52 47 43
-0.108106 0.043359 0.385472 49 44 38
0.020488 0.041169 0.393599 107 98 67
0.072726 0.039049 0.388602 58 73 44
0.159203 0.034393 0.369661 105 107 67
-0.132046 0.044462 0.386815 132 125 119
-0.097163 0.043486 0.384503 50 47 42
0.039930 0.040827 0.392546 59 73 40
0.153170 0.035199 0.371181 52 72 35
-0.077407 0.044029 0.390440 49 48 44
-0.178032 0.045291 0.379066 198 193 189
-0.118295 0.045025 0.388944 133 129 120
0.049588 0.041208 0.393588 91 95 60
0.122374 0.037677 0.380211 122 114 75
-0.167823 0.045855 0.380674 180 175 169
0.062402 0.040932 0.391138 102 104 65
-0.187749 0.046016 0.375800 195 190 184
-0.181054 0.046234 0.377996 193 188 182
-0.094344 0.045755 0.390888 147 143 134
-0.151557 0.046729 0.385084 177 172 166
0.198436 0.034749 0.363467 47 43 40
-0.124878 0.046683 0.387564 178 175 168
0.183280 0.035647 0.366434 83 78 74
-0.133548 0.047228 0.386016 180 173 165
-0.186072 0.047343 0.375702 209 204 200
-0.105422 0.047018 0.389458 178 173 167
-0.177271 0.047535 0.378154 191 186 182
-0.011073 0.045337 0.393105 48 43 39
0.195907 0.035699 0.364242 68 64 61
-0.189179 0.047731 0.374858 195 192 185
0.089728 0.042649 0.390468 107 105 67
0.241578 0.033872 0.355466 58 55 50
-0.174564 0.048443 0.377966 177 172 166
0.156755 0.038957 0.375070 61 71 37
0.121825 0.042036 0.383464 63 73 46
0.185312 0.039445 0.370219 88 83 77
-0.179640 0.050760 0.376584 206 203 196
0.142220 0.042721 0.380895 78 61 41
-0.184694 0.050805 0.373805 189 184 178
0.089503 0.046251 0.393221 55 57 43
-0.176884 0.051453 0.375858 182 179 172
0.101619 0.046221 0.393535 60 62 48
0.107366 0.046137 0.391571 56 59 42
-0.186148 0.052236 0.372810 188 183 177
0.091885 0.047806 0.394261 148 144 135
-0.177040 0.052675 0.375545 193 188 182
0.044671 0.050238 0.400251 179 175 166
0.119558 0.047221 0.389150 148 144 133
0.080594 0.049299 0.395704 177 173 164
-0.177631 0.054041 0.373600 197 192 186
-0.159028 0.054678 0.378902 168 163 157
0.160310 0.046482 0.382001 144 140 131
0.186039 0.044932 0.375841 95 88 80
0.169158 0.046091 0.378927 152 145 139
0.112184 0.049570 0.390567 177 173 162
-0.177100 0.055260 0.374088 187 182 176
-0.183482 0.055838 0.372388 208 203 197
0.093825 0.052084 0.392541 169 165 154
0.084375 0.053165 0.393362 167 163 152
-0.176109 0.057236 0.370774 208 203 197
-0.171951 0.057604 0.374234 199 192 184
-0.124776 0.057701 0.381606 167 162 156
-0.149901 0.057913 0.378294 196 191 185
-0.181248 0.057902 0.372331 212 207 203
-0.166019 0.058372 0.374349 203 198 192
-0.100195 0.058546 0.384490 172 168 159
-0.147097 0.059107 0.377964 203 200 195
-0.128078 0.059050 0.381217 196 191 185
-0.182934 0.058801 0.369401 195 190 184
-0.179910 0.059134 0.370971 197 194 189
-0.145778 0.059454 0.378191 190 187 180
-0.185269 0.059115 0.369332 208 203 197
-0.168483 0.059818 0.373838 204 201 194
-0.163233 0.060024 0.375111 193 188 182
-0.150935 0.060022 0.376588 204 199 193
-0.109336 0.060141 0.383003 184 179 173
0.151696 0.052722 0.381757 169 162 156
-0.172424 0.060583 0.373144 211 206 202
-0.124821 0.060753 0.380475 204 199 193
-0.141831 0.060916 0.378060 208 203 199
-0.147706 0.061079 0.378293 199 194 188
-0.133436 0.061106 0.380353 195 190 184
-0.163718 0.061033 0.373322 194 189 183
-0.148439 0.061288 0.376329 212 207 203
-0.171634 0.061679 0.372090 194 191 184
-0.146227 0.061924 0.377804 210 205 201
-0.106289 0.061830 0.382091 208 205 200
-0.176003 0.062126 0.368871 192 187 181
-0.179945 0.062419 0.369623 209 204 198
-0.123671 0.062767 0.378881 209 206 201
-0.147416 0.062997 0.376654 209 206 201
-0.126653 0.063292 0.380390 203 200 193
-0.112780 0.063028 0.381264 207 204 199
-0.089142 0.062681 0.383288 208 205 200
-0.148605 0.063472 0.376139 201 198 191
-0.155311 0.063659 0.372210 207 204 199
-0.119366 0.063970 0.379286 199 194 188
-0.102149 0.064253 0.381711 196 193 188
-0.159345 0.064566 0.372600 208 205 200
-0.178667 0.064071 0.367301 206 201 197
-0.177701 0.064459 0.368074 196 191 185
-0.163442 0.064660 0.372056 209 204 200
-0.168891 0.064942 0.370790 204 201 194
-0.081209 0.065032 0.383486 201 196 190
-0.179311 0.065431 0.367566 191 186 180
-0.105817 0.065819 0.380683 211 208 203
0.189441 0.055871 0.372601 186 182 179
-0.160055 0.066042 0.371772 201 198 193
-0.157790 0.066804 0.370623 208 203 199
-0.132387 0.066961 0.376339 212 209 204
-0.171202 0.067012 0.369187 197 194 187
-0.162178 0.067349 0.371404 209 204 200
-0.129312 0.067772 0.376407 189 184 178
-0.093224 0.067744 0.380484 199 194 190
-0.146784 0.068371 0.373870 211 208 203
-0.158308 0.068574 0.371808 196 191 187
-0.118809 0.068646 0.377510 210 207 202
-0.128708 0.069203 0.376015 203 198 194
-0.129581 0.069461 0.375321 189 184 178
0.063950 0.066597 0.389722 217 212 208
-0.063882 0.069432 0.383243 195 190 184
-0.149165 0.069933 0.372889 200 197 192
-0.105419 0.069935 0.378649 198 195 188
-0.027951 0.069518 0.386630 202 199 192
-0.150549 0.070380 0.372875 209 206 201
-0.153496 0.070946 0.370936 196 191 187
-0.131771 0.071194 0.374888 187 182 176
-0.118910 0.071100 0.375306 195 192 187
0.054002 0.068708 0.389176 214 209 205
-0.129927 0.071485 0.376266 203 198 192
0.079766 0.067732 0.387910 216 211 207
-0.171260 0.071494 0.367153 202 199 192
-0.154212 0.072649 0.370474 198 195 190
-0.102698 0.072657 0.377197 199 194 188
-0.150074 0.073023 0.371803 209 206 201
-0.155775 0.072704 0.369312 212 207 203
-0.146010 0.073263 0.371507 205 200 196
-0.085561 0.073209 0.379361 211 206 200
-0.072410 0.073275 0.381121 202 199 192
0.075099 0.069981 0.386765 214 211 206
-0.133024 0.073799 0.374287 187 182 176
-0.127007 0.073604 0.374021 208 203 197
-0.120852 0.074220 0.375440 210 205 201
-0.147538 0.074020 0.369815 195 192 187
0.077586 0.070719 0.385546 209 204 200
-0.156392 0.074214 0.368390 210 207 202
-0.130895 0.074436 0.373262 199 196 189
-0.129114 0.074444 0.372710 194 189 183
-0.132560 0.074830 0.373490 184 179 173
-0.071957 0.074391 0.379947 189 184 178
-0.127947 0.075289 0.374119 209 204 200
-0.179333 0.074467 0.362398 207 204 199
-0.149456 0.075060 0.369589 206 201 195
0.150013 0.067473 0.374819 208 203 199
-0.110286 0.075736 0.375006 197 192 188
-0.108586 0.075807 0.375792 205 202 197
0.029285 0.074189 0.387740 210 205 201
0.136495 0.068483 0.375966 197 192 188
-0.133159 0.075867 0.372532 186 181 175
-0.112372 0.076001 0.374830 210 207 202
0.100811 0.071030 0.382523 213 210 205
-0.149223 0.076161 0.369214 198 193 187
-0.126663 0.076535 0.372943 196 191 185
-0.075026 0.076357 0.379121 189 184 178
0.136427 0.069268 0.376853 196 188 185
-0.175916 0.076001 0.363371 190 185 179
-0.132596 0.077138 0.372012 201 198 193
-0.077079 0.076659 0.377219 204 197 191
-0.157818 0.076904 0.366890 211 206 202
-0.148168 0.077000 0.369150 210 205 201
-0.108680 0.077226 0.374609 200 197 192
-0.160738 0.077098 0.366715 202 197 193
0.118928 0.071312 0.378484 194 189 183
-0.122241 0.077717 0.373318 196 193 188
0.058700 0.075205 0.385880 192 185 179
-0.129648 0.077864 0.371870 211 208 201
0.048029 0.075549 0.385617 210 207 202
0.088698 0.073673 0.382026 215 210 206
-0.139726 0.078098 0.370287 210 207 202
0.165430 0.069226 0.371557 206 203 198
-0.135158 0.078882 0.370354 188 183 177
-0.152680 0.078945 0.367306 211 206 202
-0.107126 0.079500 0.373716 199 194 190
0.143381 0.072227 0.374565 195 190 184
-0.122574 0.080177 0.371934 204 199 193
-0.136924 0.079927 0.368714 201 198 193
-0.134509 0.080288 0.369672 204 199 193
-0.135556 0.080355 0.368967 190 186 177
0.107032 0.075392 0.379786 199 194 190
0.131811 0.073693 0.374889 195 190 184
-0.119368 0.080739 0.371911 196 191 185
-0.126069 0.081096 0.371168 204 201 194
-0.170438 0.080142 0.361030 207 202 196
-0.113006 0.081455 0.372654 207 202 196
0.114160 0.075908 0.377874 211 206 200
-0.158537 0.081399 0.364601 208 203 197
-0.135318 0.081760 0.368784 203 198 192
0.044574 0.079782 0.383652 209 204 201
-0.081690 0.081816 0.375669 188 183 177
0.115674 0.076032 0.377541 197 192 188
-0.114953 0.082295 0.372606 198 193 187
0.064096 0.079525 0.383547 211 208 203
-0.175875 0.081344 0.359442 211 206 202
-0.173192 0.081320 0.359974 191 188 181
-0.121041 0.082679 0.371210 207 204 199
0.129965 0.076015 0.375174 193 188 182
-0.140009 0.082602 0.366556 207 202 196
-0.143980 0.082650 0.365431 208 205 200
-0.136563 0.083195 0.368643 204 201 196
-0.158648 0.082940 0.362205 210 205 201
-0.102129 0.083739 0.372422 198 195 190
-0.160297 0.083168 0.362452 192 189 184
-0.116044 0.083877 0.369817 195 192 185
-0.082951 0.083738 0.374065 184 179 173
-0.071923 0.083837 0.375080 195 192 187
0.000683 0.083087 0.381772 209 204 200
0.082248 0.080655 0.381765 211 206 202
-0.095333 0.084453 0.373111 205 200 194
-0.116875 0.084450 0.369296 204 199 195
-0.081469 0.084252 0.373395 184 179 173
-0.137742 0.084693 0.367453 201 196 190
-0.092554 0.084750 0.373235 198 193 187
-0.105850 0.084858 0.371511 202 199 192
0.123074 0.078806 0.374685 198 195 188
0.135876 0.078082 0.373297 204 201 194
-0.099579 0.085308 0.371962 195 192 187
-0.157599 0.084793 0.362140 199 194 188
0.126460 0.078892 0.374113 190 185 179
-0.139644 0.085567 0.366725 184 179 173
0.085226 0.082057 0.379857 193 190 185
-0.122802 0.086205 0.368275 199 196 191
0.112626 0.080752 0.376782 191 186 180
-0.106217 0.086195 0.370437 206 201 197
-0.099159 0.086292 0.371148 205 200 194
0.143196 0.078808 0.371644 188 183 177
-0.103799 0.086600 0.371038 206 201 195
-0.070557 0.086710 0.374455 206 203 196
-0.115897 0.087022 0.369848 206 201 195
-0.174235 0.085772 0.356233 203 200 193
-0.088777 0.087090 0.371962 199 194 188
-0.060923 0.087004 0.375554 202 197 191
-0.171912 0.086260 0.358993 208 203 199
-0.085424 0.087063 0.372671 186 181 175
0.111275 0.081349 0.374953 192 187 181
0.057227 0.084628 0.380761 209 204 200
-0.111050 0.087191 0.368980 205 200 194
-0.133541 0.087669 0.367509 202 199 194
-0.114728 0.087577 0.369379 201 198 193
-0.081986 0.087600 0.373348 198 193 187
-0.041930 0.087848 0.379504 195 192 185
0.136976 0.080467 0.371545 203 198 192
-0.108926 0.088037 0.369939 194 189 185
-0.100275 0.088308 0.371119 206 201 195
-0.140489 0.088013 0.364491 188 183 177
-0.103530 0.088224 0.370176 196 191 185
-0.066613 0.088336 0.374008 210 205 201
-0.116377 0.088344 0.367692 190 185 179
-0.089012 0.088657 0.372542 188 181 175
0.022182 0.045094 0.196839 203 200 195
-0.155420 0.088905 0.362160 205 200 194
-0.117616 0.089369 0.368350 185 180 174
0.100875 0.084803 0.377885 193 190 183
-0.053168 0.089906 0.376577 210 207 202
-0.134308 0.089800 0.365111 203 200 195
-0.116066 0.089943 0.368092 200 195 189
-0.140788 0.089829 0.364617 205 200 194
-0.063518 0.089531 0.371998 204 201 194
-0.119836 0.090234 0.367415 205 200 194
-0.059636 0.090319 0.374857 208 203 197
