ply
format ascii 1.0
element vertex 1221
property float x
property float y
property float z
property uchar red
property uchar green
property uchar blue
end_header
-0.178844 0.082753 0.408778 207 208 130
-0.159894 0.083784 0.411547 209 212 123
-0.109739 0.087990 0.429925 64 71 55
0.342735 0.115265 0.557791 193 192 187
0.340245 0.115836 0.559165 209 210 204
0.358532 0.115449 0.558565 194 194 186
-0.060197 0.091580 0.444253 122 155 164
0.018225 0.095766 0.465719 68 58 59
-0.143756 0.086351 0.420226 210 210 124
-0.178741 0.083898 0.407823 207 208 128
-0.150638 0.086148 0.417628 209 210 132
-0.122476 0.088216 0.425681 82 80 19
-0.114108 0.088791 0.427713 217 217 121
-0.038638 0.093185 0.448510 144 172 176
0.373866 0.116619 0.558609 206 205 200
0.319453 0.116964 0.557152 201 200 196
0.017531 0.097704 0.466987 60 58 59
-0.165595 0.087023 0.413218 56 59 50
-0.001372 0.097369 0.459534 101 103 82
0.322822 0.118782 0.554770 182 182 174
-0.170183 0.086086 0.405631 214 212 135
0.368264 0.119176 0.556341 207 206 201
0.337593 0.119156 0.555421 207 206 201
-0.124434 0.090681 0.423609 214 214 128
0.376599 0.120402 0.556600 213 212 207
0.335435 0.120856 0.554911 199 198 193
-0.119664 0.091861 0.424604 75 76 58
0.394389 0.121553 0.553873 194 193 188
-0.116004 0.093151 0.425122 72 74 61
0.366558 0.122527 0.555299 202 203 197
-0.058409 0.096884 0.440978 136 168 179
0.013647 0.101686 0.460701 125 130 123
0.370521 0.123050 0.554863 202 203 197
-0.193155 0.087689 0.397902 70 73 78
-0.154603 0.091359 0.412991 48 53 57
-0.005049 0.101318 0.455997 163 159 134
-0.169403 0.090645 0.407484 65 70 76
-0.015890 0.100822 0.451405 169 187 191
-0.174387 0.090250 0.405469 67 72 76
0.364450 0.125028 0.553893 196 195 190
-0.175021 0.091274 0.404670 50 53 58
0.317388 0.125645 0.552198 205 206 200
0.379867 0.125931 0.550724 197 198 192
0.354176 0.127145 0.554544 197 197 189
-0.155578 0.094080 0.413076 50 55 59
0.318654 0.127461 0.552275 188 187 182
-0.198998 0.090532 0.392309 53 58 54
0.014193 0.106443 0.458098 78 87 82
0.405924 0.129708 0.549185 203 202 197
0.001048 0.106530 0.451503 85 87 84
0.330069 0.131290 0.550574 203 203 195
0.378697 0.131363 0.551393 186 185 180
-0.078756 0.101970 0.429376 127 155 167
0.372658 0.131737 0.549986 193 192 187
0.298722 0.131599 0.547759 203 202 197
0.408696 0.131522 0.547799 207 206 201
0.017695 0.110255 0.457685 94 92 95
0.010144 0.109670 0.455007 97 99 94
0.372007 0.134443 0.548559 180 179 174
-0.015363 0.109530 0.447200 188 203 200
0.350518 0.135108 0.549872 202 201 196
0.385174 0.134795 0.548089 178 178 170
-0.016842 0.109966 0.444781 175 193 195
0.018116 0.112697 0.454630 82 76 76
0.004401 0.111894 0.450475 95 100 93
0.354878 0.137062 0.549002 182 181 176
-0.124127 0.104441 0.417375 53 58 64
-0.018051 0.111597 0.445054 156 175 181
-0.160077 0.100403 0.397748 82 87 93
-0.081036 0.108134 0.426742 55 59 68
-0.071029 0.108137 0.426662 118 162 189
-0.109568 0.106572 0.418597 127 132 136
0.317885 0.140222 0.546455 204 205 199
-0.056265 0.110839 0.432824 141 176 198
0.321735 0.141049 0.546158 202 203 197
-0.198672 0.100284 0.389905 40 39 35
-0.127764 0.106814 0.413046 31 34 39
0.319123 0.142487 0.546061 167 166 161
0.376797 0.141933 0.545900 207 206 201
0.366373 0.142434 0.545802 210 211 205
-0.107346 0.108976 0.417810 29 33 36
-0.072811 0.111365 0.426922 113 150 177
-0.041931 0.114194 0.436805 144 177 196
-0.053431 0.112775 0.431458 127 159 182
-0.017964 0.115911 0.442472 95 115 126
0.388546 0.143251 0.545170 189 188 183
-0.055022 0.114030 0.431271 25 38 47
-0.074205 0.113574 0.427658 27 28 33
-0.013883 0.117609 0.443390 31 36 40
-0.000597 0.118517 0.447027 42 43 47
-0.006457 0.117929 0.443792 29 30 34
0.377584 0.146177 0.547367 209 208 203
0.364409 0.146079 0.544362 194 193 189
0.392464 0.146361 0.543283 211 210 205
0.385142 0.146542 0.542889 194 193 188
0.305203 0.147589 0.542047 200 201 196
0.366509 0.147545 0.543659 212 213 207
0.335640 0.148794 0.542990 204 203 198
0.401691 0.147475 0.540742 185 185 177
0.346475 0.149242 0.543457 204 205 200
-0.051011 0.120266 0.435355 35 35 37
0.328255 0.150346 0.541875 197 198 192
-0.194495 0.109005 0.392861 37 37 35
-0.060290 0.120228 0.433130 151 151 149
-0.191277 0.109380 0.393010 37 37 39
0.317135 0.151228 0.542185 203 202 197
-0.159392 0.113379 0.406691 32 34 33
0.344219 0.151863 0.543899 204 203 198
-0.153279 0.113820 0.408045 36 36 38
-0.027279 0.123439 0.441896 150 150 148
0.304847 0.151128 0.539210 175 172 167
0.361213 0.152390 0.541517 196 195 190
-0.083490 0.120912 0.427725 36 36 36
-0.040218 0.125086 0.440788 150 151 146
0.335876 0.153839 0.541904 192 189 184
-0.151226 0.116752 0.410077 144 143 122
0.315432 0.153616 0.539490 206 205 200
0.328004 0.154269 0.540448 208 207 202
0.354722 0.154056 0.540197 207 208 203
-0.078373 0.123227 0.431022 153 152 150
-0.119140 0.120268 0.419566 145 147 125
-0.169229 0.116317 0.404482 33 39 51
-0.152511 0.118044 0.410557 51 52 34
0.378314 0.154748 0.540276 168 167 162
-0.068268 0.124833 0.433952 154 154 152
-0.019337 0.128449 0.445844 153 152 148
-0.167247 0.116932 0.405649 125 133 136
-0.197739 0.114480 0.395005 48 49 41
-0.118450 0.121909 0.420618 37 38 33
-0.071096 0.126684 0.436328 152 153 148
0.028032 0.132927 0.458800 36 34 39
-0.181322 0.116686 0.401230 37 41 44
-0.146695 0.120127 0.412974 137 137 125
0.045041 0.134514 0.461638 34 33 38
0.017715 0.133431 0.457573 33 33 35
0.077794 0.136415 0.467745 35 35 37
0.374081 0.156920 0.537666 203 202 197
-0.159155 0.120403 0.409739 54 55 39
-0.098785 0.125922 0.427982 147 147 145
-0.049479 0.129658 0.440220 148 148 146
-0.136401 0.123128 0.417063 39 40 42
-0.170508 0.120175 0.406639 80 88 99
-0.137308 0.122804 0.415890 38 37 42
-0.026612 0.131144 0.443883 151 151 149
0.302294 0.159444 0.538685 178 177 172
0.020106 0.135886 0.458691 94 92 93
-0.105140 0.126985 0.426546 40 40 42
-0.096318 0.129119 0.432995 38 38 40
-0.014912 0.134346 0.450008 146 145 143
0.349217 0.160043 0.538308 205 204 199
-0.004531 0.135497 0.453298 120 122 121
0.004295 0.136387 0.456334 68 68 68
-0.124173 0.126400 0.421752 139 138 118
0.017499 0.137801 0.459514 36 36 36
-0.153951 0.124520 0.413792 42 44 43
-0.137154 0.126086 0.418888 135 135 125
0.379480 0.160634 0.535638 204 203 198
-0.036469 0.134833 0.446841 143 142 140
-0.120689 0.128088 0.423444 40 40 38
0.137218 0.143431 0.476440 137 133 121
-0.001297 0.138103 0.455768 119 119 119
0.362094 0.162244 0.537450 186 186 178
0.368805 0.162900 0.534948 195 194 189
-0.028484 0.137255 0.447638 145 144 142
-0.078578 0.134658 0.437568 142 142 140
-0.048220 0.137280 0.445953 142 143 138
-0.041187 0.138477 0.448715 142 141 139
0.020380 0.143468 0.464623 35 35 37
0.182785 0.122049 0.404380 112 78 77
-0.062601 0.136523 0.441270 39 39 39
-0.002688 0.141940 0.457224 42 40 43
0.057923 0.146373 0.472387 38 38 40
-0.183107 0.125887 0.405225 17 17 19
-0.170444 0.128776 0.413880 22 23 25
-0.113963 0.133017 0.427582 43 43 45
0.319055 0.165954 0.535744 206 205 200
-0.108117 0.133487 0.428252 45 45 47
0.345315 0.167024 0.535142 196 195 190
-0.127183 0.135837 0.431889 15 16 18
-0.201171 0.184357 0.570233 58 59 63
-0.049956 0.143128 0.451080 17 17 17
0.006016 0.147760 0.465910 32 28 25
-0.101066 0.138683 0.435766 55 56 58
-0.142347 0.138195 0.432480 26 26 28
-0.162916 0.133366 0.416898 29 30 32
-0.040316 0.144804 0.452498 120 116 105
0.384334 0.169121 0.533003 203 202 197
0.103028 0.153177 0.480101 28 31 24
-0.092309 0.142501 0.442420 28 29 31
-0.000465 0.148950 0.463064 123 118 98
0.050673 0.152795 0.474823 73 107 74
0.258839 0.162504 0.506352 49 48 54
-0.157589 0.136401 0.420055 32 32 32
0.122880 0.158667 0.490782 71 101 65
-0.168936 0.134674 0.414025 32 33 37
-0.151826 0.137057 0.421518 32 32 32
-0.149381 0.137434 0.422632 30 31 26
0.177874 0.159895 0.495134 134 138 137
0.221396 0.162042 0.501621 141 145 146
0.366756 0.171287 0.531787 201 200 195
0.372230 0.170708 0.528953 197 196 191
0.000790 0.153002 0.469422 38 34 33
0.300735 0.171969 0.530557 195 194 189
0.381716 0.171593 0.531435 207 207 199
-0.192282 0.133024 0.406973 37 38 33
-0.177807 0.134898 0.412676 105 87 87
-0.125880 0.140521 0.430194 34 33 29
0.294588 0.172410 0.531518 169 168 163
-0.035124 0.149133 0.455872 154 154 152
-0.047747 0.147939 0.452157 153 153 153
-0.001567 0.152151 0.464757 143 138 108
0.080775 0.157709 0.481823 56 82 53
0.292370 0.173084 0.529436 167 166 161
-0.209417 0.135829 0.411368 198 197 193
0.000483 0.153582 0.465671 36 35 31
0.043609 0.156503 0.475364 132 140 93
0.252043 0.166066 0.505647 142 144 141
0.261824 0.166155 0.505625 108 108 100
-0.003986 0.153907 0.463688 138 133 111
0.106262 0.160806 0.486405 52 75 47
-0.129995 0.143066 0.430140 35 36 31
-0.074617 0.148625 0.446578 36 36 34
0.357480 0.174122 0.528843 203 202 197
-0.164571 0.140309 0.420085 125 129 132
-0.020053 0.153890 0.461619 148 147 145
0.009178 0.156381 0.468978 132 127 97
-0.146843 0.142367 0.426012 36 36 34
-0.028304 0.153416 0.459531 146 146 144
0.045003 0.159475 0.477291 59 82 53
0.320061 0.176207 0.530753 197 197 189
-0.040156 0.152963 0.456312 42 40 41
0.073698 0.161104 0.482339 55 78 49
0.296994 0.176266 0.529610 192 193 187
0.076283 0.161556 0.483365 53 76 48
0.297947 0.176473 0.528976 190 191 185
-0.171284 0.140714 0.418407 78 74 73
0.025322 0.159000 0.473296 57 80 52
-0.162962 0.142051 0.421202 37 37 39
0.030372 0.159538 0.474395 60 78 52
-0.155751 0.143029 0.424045 103 100 67
0.070168 0.162566 0.483069 55 75 48
0.190014 0.167594 0.499943 85 85 83
-0.094245 0.149827 0.442804 142 142 142
-0.073507 0.151469 0.448031 144 143 141
-0.063148 0.152780 0.451587 139 139 137
-0.049659 0.154192 0.455592 141 141 139
-0.004491 0.158621 0.468382 140 134 112
-0.045814 0.154704 0.456527 139 139 137
0.119689 0.165771 0.491862 79 60 43
-0.185498 0.140164 0.412590 46 46 46
-0.065321 0.153542 0.451413 40 40 38
0.001850 0.159977 0.470600 90 84 58
0.023479 0.160965 0.473970 122 126 91
0.036976 0.162396 0.477819 60 76 47
-0.104127 0.150309 0.440691 53 53 51
0.123559 0.167256 0.493434 146 129 113
-0.136699 0.146377 0.428720 112 112 100
-0.087781 0.152019 0.445421 46 46 44
0.047358 0.162871 0.479147 55 78 49
0.317095 0.178868 0.528726 199 198 193
0.076598 0.164196 0.482519 57 76 48
0.003728 0.161324 0.472189 79 77 64
-0.129339 0.148733 0.434084 120 119 98
0.131433 0.168181 0.493712 134 119 98
0.157631 0.169489 0.498222 99 109 74
0.170554 0.170256 0.500465 44 45 49
-0.074593 0.154400 0.450163 49 48 46
-0.031036 0.158843 0.463053 49 49 47
0.012474 0.160059 0.468096 44 41 32
0.021523 0.161112 0.470214 61 80 52
0.103728 0.168140 0.491542 127 125 100
0.338625 0.180187 0.529783 210 209 204
0.099226 0.168236 0.491032 120 129 112
0.135384 0.169972 0.496124 80 63 47
0.291891 0.179762 0.526376 197 196 191
-0.029215 0.159920 0.463682 135 134 132
0.289804 0.180258 0.526877 167 164 159
0.363688 0.180364 0.527117 185 184 179
0.121562 0.170846 0.495741 140 124 108
-0.151739 0.149178 0.429165 47 46 41
-0.135980 0.150175 0.432683 62 61 56
0.309163 0.182117 0.528002 207 206 201
0.337091 0.181917 0.528228 208 207 203
-0.033780 0.162300 0.465028 53 54 49
0.183357 0.175226 0.506010 102 103 98
0.219566 0.176663 0.510096 96 97 91
-0.079693 0.154520 0.443192 42 43 38
-0.188210 0.146201 0.417426 160 159 154
0.016988 0.167203 0.478332 49 49 41
-0.149465 0.152099 0.432429 154 151 144
0.174124 0.175965 0.504610 121 122 116
0.363059 0.182666 0.526548 176 175 170
-0.099344 0.158283 0.448049 170 167 160
0.128880 0.176053 0.501106 68 64 52
0.121039 0.172780 0.491678 61 61 51
0.219866 0.180004 0.513441 125 124 119
0.149459 0.178084 0.506194 57 61 46
0.314459 0.184307 0.525686 199 199 191
-0.024671 0.166714 0.470252 168 167 162
0.331679 0.185188 0.527443 182 183 177
-0.029791 0.166600 0.469002 173 172 167
0.027232 0.185027 0.519569 170 170 162
0.198872 0.180614 0.511894 89 89 81
0.226887 0.181994 0.516381 100 100 92
0.053672 0.173627 0.489507 167 167 159
0.274828 0.184276 0.522639 200 201 195
0.074653 0.175267 0.493025 165 166 160
0.084560 0.176176 0.495782 172 172 164
0.256634 0.183494 0.517509 173 173 165
0.027054 0.173298 0.482878 180 179 174
0.345125 0.186776 0.525441 208 207 202
-0.113617 0.140522 0.393811 169 168 163
-0.090398 0.161264 0.448290 184 183 178
-0.190472 0.149573 0.413916 171 170 165
0.046307 0.175215 0.486671 185 184 179
0.340788 0.187331 0.525187 207 206 201
0.271525 0.186551 0.520581 206 205 200
0.028035 0.175128 0.483514 177 176 171
0.175664 0.184022 0.509007 185 184 179
0.276759 0.187975 0.521330 207 208 202
0.371063 0.187672 0.523122 197 197 189
0.277359 0.187664 0.520155 210 209 204
0.024590 0.173718 0.473577 185 184 179
0.205930 0.187995 0.512827 192 192 184
0.278383 0.190641 0.520327 196 195 190
0.076696 0.180850 0.489858 184 183 178
0.018860 0.176816 0.477514 174 173 168
0.003930 0.176536 0.475240 186 185 180
0.330271 0.192220 0.522682 197 196 191
0.032308 0.178875 0.480096 187 186 181
0.038604 0.179743 0.481445 179 180 174
0.357966 0.193009 0.521811 198 197 192
0.324337 0.193486 0.520832 193 192 187
0.078011 0.183552 0.489965 171 171 163
0.224433 0.191445 0.512209 194 194 186
0.173971 0.189380 0.505561 172 172 164
0.196070 0.191036 0.508934 185 184 179
0.190366 0.190705 0.506967 177 176 171
0.003334 0.179186 0.472169 185 184 179
0.388931 0.194371 0.518797 190 189 184
0.132471 0.188968 0.498675 173 172 167
0.169646 0.190982 0.504445 180 179 174
0.254630 0.195312 0.515404 174 174 166
0.340917 0.196320 0.519959 189 188 183
0.055208 0.184690 0.483334 184 184 176
0.060187 0.185634 0.483961 169 169 161
0.110011 0.189297 0.494019 185 185 177
0.136970 0.190247 0.496660 181 181 173
0.059905 0.186836 0.486168 172 172 164
0.241324 0.196290 0.512409 185 185 177
0.318175 0.198163 0.518889 207 206 202
0.130223 0.191188 0.497369 169 169 161
0.369496 0.197481 0.518493 204 203 198
0.018628 0.182992 0.474150 171 168 161
0.391112 0.198506 0.520296 203 202 197
0.122097 0.191444 0.495935 180 179 174
0.218041 0.196208 0.509680 187 186 181
0.358013 0.199054 0.518884 203 202 197
0.036460 0.185272 0.476876 176 175 170
0.375075 0.198612 0.517953 198 199 193
0.116425 0.191177 0.493458 173 172 167
0.293697 0.200441 0.518600 202 201 196
0.079992 0.189562 0.486996 181 180 175
-0.203061 0.156303 0.399387 171 170 165
0.169020 0.195354 0.501872 181 180 175
-0.135874 0.168406 0.428070 179 176 171
0.340946 0.200891 0.517545 205 204 199
0.358763 0.201093 0.517797 208 207 202
-0.146728 0.166849 0.421927 164 164 156
0.226014 0.199405 0.509128 170 170 162
0.313755 0.202593 0.518508 198 197 192
0.129372 0.194999 0.494880 182 182 174
0.141373 0.195532 0.496802 167 164 157
0.063182 0.190584 0.480778 179 179 171
-0.122982 0.171226 0.430084 164 164 156
-0.122436 0.172323 0.432752 166 166 158
0.145600 0.196484 0.495479 169 169 161
0.286440 0.203620 0.515160 184 183 178
0.330529 0.204473 0.517425 189 189 181
-0.108483 0.173866 0.434675 163 163 155
0.136569 0.197044 0.495021 178 178 170
0.045675 0.190789 0.477489 183 182 178
0.128133 0.197773 0.495959 172 171 166
0.033218 0.190343 0.475026 185 184 179
0.318875 0.205118 0.515935 181 180 175
-0.158494 0.167601 0.415855 156 156 148
0.152903 0.198897 0.497285 181 182 176
0.236106 0.203060 0.508756 170 170 162
0.093559 0.195574 0.487162 186 185 180
-0.000454 0.187451 0.464664 173 173 165
0.042252 0.191526 0.475312 174 174 166
0.201718 0.202485 0.504667 182 182 174
0.107567 0.196917 0.489011 173 173 165
0.368382 0.205410 0.515112 207 206 201
0.179640 0.200790 0.499300 177 176 171
0.330369 0.206346 0.515544 208 207 202
0.055301 0.192613 0.476733 182 181 176
0.138903 0.199017 0.493261 167 164 157
0.162056 0.200601 0.497551 174 173 168
0.342106 0.207183 0.515821 193 192 187
0.232000 0.205458 0.508577 165 165 157
-0.176517 0.165962 0.406502 173 173 165
0.379964 0.205755 0.512671 194 193 188
-0.181591 0.164817 0.402804 150 150 142
-0.134071 0.173184 0.423509 167 164 157
0.344671 0.207462 0.514544 182 181 176
0.153446 0.200955 0.494554 176 176 168
0.218882 0.205166 0.504925 183 182 177
-0.129854 0.174507 0.424907 167 164 157
-0.202191 0.163260 0.397067 183 180 173
0.149269 0.202404 0.495175 171 171 163
0.335482 0.209482 0.515700 192 191 186
-0.108198 0.178029 0.431008 184 181 174
0.075813 0.197997 0.480600 173 170 165
0.215779 0.207074 0.504532 164 164 156
-0.122638 0.176710 0.426888 179 176 169
-0.118334 0.177018 0.427549 176 176 168
0.083524 0.198459 0.481319 181 181 173
0.332636 0.210462 0.513128 209 208 203
-0.162147 0.171113 0.409928 171 171 163
-0.140310 0.174623 0.417978 162 161 156
0.162854 0.205552 0.495051 160 157 150
0.293648 0.211048 0.510875 207 206 201
-0.198808 0.165460 0.395505 182 183 178
-0.044572 0.188371 0.450168 192 191 186
0.195012 0.207802 0.500168 178 178 170
-0.170221 0.171053 0.407720 158 158 150
0.021914 0.195493 0.467440 182 181 176
0.024572 0.195595 0.468106 174 174 166
0.240327 0.210838 0.506974 167 167 159
0.220969 0.209323 0.502779 161 161 153
0.317591 0.212768 0.512599 203 202 197
-0.128495 0.177997 0.423370 159 159 151
-0.084519 0.183418 0.436295 163 163 155
0.309630 0.212450 0.511644 203 202 197
0.349649 0.212475 0.512051 207 206 201
-0.009280 0.193024 0.458691 185 184 179
0.010234 0.195447 0.464405 168 169 161
-0.047378 0.188897 0.447975 175 174 169
-0.019660 0.191617 0.454550 185 185 177
-0.092926 0.183282 0.433886 168 167 162
-0.014485 0.193082 0.457217 181 180 175
-0.141430 0.177603 0.418884 174 174 166
-0.063926 0.187061 0.441747 170 167 160
-0.011131 0.193875 0.457787 183 182 177
0.016876 0.196924 0.464915 185 182 175
0.205072 0.210612 0.499939 182 179 172
-0.197130 0.168554 0.395157 181 180 175
0.298942 0.215120 0.511021 184 183 178
-0.066919 0.188334 0.441430 182 182 174
-0.104741 0.183243 0.428472 167 164 157
-0.057658 0.189534 0.443531 184 184 176
0.367133 0.215575 0.510480 180 179 174
-0.039571 0.191717 0.447123 185 182 175
0.327154 0.216212 0.510658 209 208 203
0.293609 0.216779 0.510146 209 208 203
-0.065639 0.189555 0.441570 168 165 158
0.000951 0.196957 0.459274 180 179 174
-0.148387 0.178050 0.413829 164 163 158
-0.160217 0.177011 0.410092 168 167 162
-0.178507 0.173144 0.400126 161 160 155
0.348543 0.216894 0.509163 207 206 201
-0.137582 0.180390 0.417346 168 167 162
-0.118691 0.183084 0.423237 180 179 174
0.325511 0.217694 0.510592 196 195 190
-0.079163 0.188756 0.436585 172 172 164
0.106225 0.207636 0.482881 170 170 162
-0.012921 0.196808 0.455493 180 179 174
0.329381 0.218503 0.510942 215 214 209
-0.061384 0.191108 0.440984 154 154 146
-0.054872 0.192051 0.443141 184 181 174
0.310539 0.218186 0.508983 199 198 193
0.051218 0.203498 0.470149 188 187 182
0.316962 0.218781 0.509419 197 197 189
0.158868 0.212380 0.491478 168 165 158
0.056297 0.205270 0.472720 169 166 159
0.237464 0.217799 0.504471 157 157 149
-0.112157 0.185390 0.425433 170 169 164
-0.041299 0.194372 0.446032 188 187 182
0.372124 0.217792 0.506965 205 204 199
0.210767 0.215963 0.499600 167 166 161
0.323909 0.219656 0.510032 203 204 198
0.365157 0.218906 0.509506 178 177 172
0.169208 0.213389 0.491899 175 174 169
-0.054930 0.193877 0.441958 175 175 167
-0.133087 0.182880 0.416162 180 180 172
-0.041093 0.196709 0.447253 176 176 168
-0.038233 0.196373 0.446781 178 175 168
-0.069604 0.192780 0.437959 186 185 180
0.202329 0.217094 0.496576 176 176 168
0.343852 0.221284 0.509366 194 194 186
-0.125755 0.186030 0.421701 185 185 177
-0.096177 0.189419 0.429840 186 185 180
0.277437 0.220579 0.505997 176 175 170
-0.061565 0.193763 0.439000 184 184 176
-0.023688 0.199256 0.451936 186 185 180
0.031546 0.204835 0.464899 189 188 183
-0.072234 0.193031 0.436998 187 186 181
0.267588 0.220800 0.504575 176 175 170
0.056562 0.207584 0.471325 166 165 160
0.037586 0.204952 0.464335 176 175 170
0.224671 0.219719 0.499856 167 167 159
0.370800 0.221217 0.506559 204 203 198
-0.177575 0.175961 0.396128 181 178 171
0.202953 0.218458 0.495682 190 190 182
0.226924 0.219693 0.498427 187 187 179
0.033001 0.206342 0.464603 184 183 178
0.091247 0.211147 0.476540 177 176 171
0.295406 0.222718 0.505868 197 196 191
-0.185098 0.175322 0.392495 182 182 174
-0.129406 0.186208 0.417755 186 185 180
-0.037001 0.199319 0.445976 190 189 184
0.089420 0.211986 0.476015 195 194 189
0.177656 0.218709 0.491932 171 170 165
-0.034417 0.199329 0.445044 192 191 186
-0.073438 0.194932 0.434384 191 188 181
-0.025481 0.201110 0.448192 195 194 189
0.007104 0.204992 0.457561 182 181 176
-0.082581 0.194138 0.432044 180 179 174
-0.154283 0.183127 0.406343 187 186 181
0.132492 0.216706 0.484424 188 185 178
0.304312 0.226010 0.507221 206 207 202
0.282552 0.225674 0.505804 201 200 195
-0.146091 0.184297 0.407937 179 178 173
-0.059763 0.198110 0.439052 191 190 185
-0.057704 0.198394 0.439588 177 177 169
0.166177 0.219350 0.488975 194 193 188
0.117846 0.215577 0.479683 189 188 183
-0.053263 0.198613 0.439306 198 197 192
0.069687 0.212870 0.471906 194 194 186
0.326484 0.225569 0.504896 185 185 177
0.192583 0.221777 0.492862 196 195 190
-0.196918 0.174859 0.384648 185 184 179
-0.038730 0.200754 0.443011 196 196 188
0.158384 0.220090 0.488127 191 190 185
-0.174804 0.180134 0.395624 188 187 182
0.274054 0.226361 0.503331 179 178 173
-0.102031 0.192775 0.423344 190 189 184
0.110717 0.216656 0.478243 180 179 174
-0.163139 0.184007 0.403285 187 186 181
-0.159247 0.183793 0.402680 180 179 174
-0.041688 0.201295 0.441966 185 184 179
0.009786 0.208214 0.457428 188 187 182
0.048296 0.211625 0.465452 188 187 182
-0.100593 0.194090 0.424147 183 182 177
-0.059993 0.200795 0.438848 184 183 178
0.165675 0.222277 0.489368 196 195 190
0.171894 0.221678 0.488093 199 199 191
0.236363 0.226658 0.499754 202 203 197
0.242062 0.226535 0.499287 178 178 170
0.029251 0.210745 0.460983 188 187 182
-0.169191 0.182643 0.397227 201 202 196
-0.136443 0.188995 0.411439 184 183 178
0.097248 0.217978 0.476617 198 197 192
0.351925 0.228386 0.504853 201 200 195
0.155504 0.221643 0.485523 199 198 193
-0.140130 0.188241 0.408287 187 186 181
-0.086924 0.197548 0.429088 201 200 195
0.321003 0.229271 0.503783 197 196 191
-0.112372 0.193409 0.418757 183 182 177
0.364844 0.229637 0.505514 208 207 203
-0.037536 0.203680 0.441317 202 201 196
0.310047 0.230630 0.505427 201 200 195
-0.021570 0.206057 0.445938 187 186 181
-0.151201 0.187034 0.403127 199 199 191
-0.000011 0.209162 0.452632 199 199 191
0.187157 0.225556 0.490806 181 180 175
0.156752 0.222994 0.484151 193 192 187
-0.143327 0.189111 0.407313 198 197 192
-0.003919 0.209038 0.450773 201 200 195
0.078721 0.217486 0.470554 203 202 197
0.034530 0.212996 0.459489 191 190 185
0.228579 0.229247 0.497656 207 206 201
0.111771 0.220716 0.477227 201 201 193
0.315593 0.231082 0.503011 197 196 191
0.346993 0.230509 0.502591 205 204 199
-0.137710 0.190729 0.409375 189 188 183
0.274163 0.231515 0.502616 180 179 174
0.325228 0.231160 0.502905 201 200 195
-0.132873 0.191362 0.410078 206 205 200
0.087713 0.218951 0.471463 194 193 188
-0.175372 0.183687 0.392228 179 178 173
-0.160362 0.186465 0.398364 182 181 176
-0.115523 0.194726 0.416716 196 196 188
0.024410 0.213186 0.457770 196 195 190
0.291972 0.231925 0.502434 198 197 192
-0.176217 0.183268 0.391109 181 180 175
-0.060379 0.203050 0.434628 205 204 199
-0.030237 0.207419 0.443459 207 206 201
0.188510 0.226191 0.487397 206 205 200
0.239572 0.229921 0.496009 195 196 190
0.113348 0.221859 0.476382 190 187 180
0.014346 0.212439 0.454568 205 204 199
0.083602 0.219873 0.471305 204 205 199
0.251541 0.231386 0.498551 178 177 172
-0.129020 0.193280 0.411730 203 202 197
-0.138099 0.191767 0.407849 204 203 198
-0.113364 0.195739 0.417070 181 180 175
-0.172918 0.185373 0.393661 201 200 195
0.141926 0.224407 0.480764 210 209 204
-0.125575 0.193787 0.411260 202 203 197
0.278370 0.232630 0.499608 198 197 192
0.001285 0.211875 0.451001 201 200 195
-0.165600 0.186824 0.395260 174 173 168
-0.109136 0.197418 0.418205 188 187 182
0.344039 0.232584 0.499640 207 206 201
-0.186766 0.182878 0.385578 201 200 195
0.004082 0.212951 0.451461 207 206 201
0.338872 0.234137 0.501977 195 196 190
-0.192271 0.182196 0.383995 180 179 174
-0.162285 0.187907 0.396150 191 188 183
-0.028310 0.209254 0.442292 192 191 186
0.091093 0.222032 0.471091 198 195 190
-0.061793 0.205114 0.432980 202 201 197
-0.183440 0.183656 0.386471 187 188 182
0.006310 0.213806 0.451691 195 194 190
0.355009 0.233958 0.500822 201 200 195
0.139464 0.227084 0.480532 212 211 206
0.270864 0.235038 0.499579 182 179 174
-0.090089 0.201367 0.422953 200 199 194
0.014387 0.215105 0.452957 198 197 192
-0.164754 0.188126 0.394052 195 195 187
0.057724 0.220094 0.463309 206 205 200
0.297919 0.235154 0.499729 208 207 202
0.310967 0.235849 0.501112 210 209 205
0.317506 0.235010 0.499968 208 207 202
-0.140492 0.192904 0.403903 205 204 199
0.028181 0.217334 0.455328 210 209 204
-0.098887 0.201166 0.419978 204 203 198
-0.095438 0.201608 0.420532 208 207 202
0.082042 0.222910 0.467145 209 208 203
-0.027417 0.211751 0.441955 206 207 201
-0.087263 0.202900 0.422559 208 207 202
0.315592 0.237374 0.500520 192 191 186
-0.138187 0.195269 0.405514 203 202 197
-0.033765 0.211041 0.439115 210 211 205
-0.156254 0.192005 0.398076 200 199 194
0.153566 0.230527 0.481945 208 207 202
-0.090599 0.203119 0.421456 203 203 195
0.041731 0.219453 0.456652 198 197 192
0.329279 0.237872 0.498882 207 207 199
-0.071424 0.206662 0.427314 207 206 201
-0.034793 0.211929 0.438329 201 200 195
0.156768 0.231741 0.481544 214 213 209
0.139393 0.230102 0.477667 209 208 203
0.230511 0.236910 0.493121 210 209 204
0.282069 0.238191 0.496895 206 205 200
-0.149614 0.193821 0.398844 205 204 199
-0.015865 0.214583 0.442930 206 205 201
0.121088 0.229526 0.475460 197 197 189
0.088220 0.226635 0.468794 196 195 190
0.340197 0.238959 0.498664 190 189 184
0.006553 0.217733 0.448951 209 210 205
0.057838 0.223551 0.461093 199 198 193
-0.013968 0.215251 0.442251 187 186 181
-0.002381 0.217057 0.446377 209 208 203
0.015090 0.219696 0.450916 214 213 208
-0.151742 0.194165 0.396423 206 205 200
-0.107506 0.202488 0.414246 196 195 190
-0.097283 0.204368 0.418006 203 202 197
-0.172702 0.190245 0.387940 203 204 198
0.059469 0.224711 0.461276 204 203 198
0.231652 0.238283 0.491590 200 199 194
-0.090041 0.205607 0.419872 192 191 186
-0.101413 0.204617 0.417173 203 204 198
0.228684 0.238695 0.490958 214 215 209
0.076255 0.227443 0.465832 212 211 206
0.243571 0.239749 0.493579 192 191 186
-0.167832 0.191764 0.389181 176 176 168
0.000156 0.218196 0.445044 210 209 204
0.257905 0.240401 0.494055 180 179 174
0.145356 0.233587 0.478023 191 191 183
-0.142184 0.198131 0.401905 207 206 201
-0.053772 0.212495 0.431927 210 209 204
-0.038693 0.213750 0.434959 210 209 205
-0.106450 0.204089 0.414135 210 209 204
0.343294 0.242006 0.498381 194 193 188
-0.032846 0.215726 0.438176 193 192 187
-0.170151 0.191731 0.387543 198 197 192
-0.161839 0.193060 0.390247 186 187 181
0.331274 0.241937 0.497300 203 202 197
-0.145921 0.197204 0.398716 195 194 189
0.030136 0.223186 0.453712 203 202 197
-0.134662 0.198941 0.401866 204 203 198
0.048205 0.225387 0.456912 186 186 178
0.148688 0.235542 0.478408 211 210 205
-0.182781 0.190449 0.383069 203 202 197
-0.090400 0.207859 0.418694 210 211 205
0.011341 0.221728 0.447394 195 194 189
0.136079 0.233978 0.473907 208 207 202
0.317686 0.243671 0.496289 188 188 180
-0.126282 0.201150 0.403517 186 185 180
0.077994 0.229623 0.462992 184 183 178
-0.120531 0.203522 0.407334 205 204 199
-0.071413 0.211039 0.422681 195 196 190
0.196719 0.240687 0.486022 192 191 186
-0.187057 0.189736 0.378650 184 183 178
-0.139844 0.200024 0.399794 206 205 200
-0.112725 0.204964 0.409866 206 205 200
-0.068966 0.212261 0.425274 183 182 177
0.165472 0.237750 0.479490 201 201 193
0.080054 0.230208 0.462274 201 200 195
-0.055968 0.214339 0.428426 210 209 204
0.181912 0.239478 0.481596 213 212 207
0.184393 0.239992 0.482987 206 205 200
0.084091 0.231325 0.463559 197 196 191
-0.158100 0.196841 0.391673 209 208 203
0.157256 0.238261 0.477928 207 206 201
0.163429 0.240216 0.481740 190 189 184
0.035290 0.227112 0.453156 210 209 204
0.262793 0.245108 0.492062 204 203 198
-0.148586 0.199176 0.393902 194 191 186
-0.121820 0.205511 0.407010 206 207 202
-0.002305 0.223198 0.443142 212 211 206
0.357587 0.247271 0.497095 206 205 200
0.068840 0.230996 0.459304 201 200 195
0.094609 0.234218 0.466048 206 207 202
-0.014536 0.221901 0.439195 192 191 186
0.351085 0.248152 0.497294 201 200 195
0.157133 0.239739 0.476738 199 198 193
0.300116 0.247720 0.494568 204 204 196
0.137638 0.239519 0.473219 204 205 200
0.041210 0.230299 0.453600 197 196 191
-0.161992 0.197764 0.387110 206 205 201
-0.140641 0.203106 0.397248 203 204 198
0.071818 0.233494 0.459386 211 210 205
-0.092173 0.212184 0.415269 190 189 184
-0.052147 0.218901 0.428817 204 203 198
-0.153987 0.200704 0.391784 208 209 204
-0.010918 0.223328 0.437431 201 200 195
-0.187347 0.192574 0.375145 195 194 189
0.166982 0.242755 0.477413 210 211 205
-0.083087 0.213719 0.417200 186 185 180
0.040183 0.230488 0.451354 200 199 194
0.315125 0.250368 0.495081 183 184 178
0.329062 0.249815 0.494293 198 197 192
-0.122357 0.206844 0.403044 203 202 198
-0.133512 0.205374 0.399265 203 202 197
0.036771 0.231011 0.451034 209 208 203
-0.129651 0.206379 0.400709 186 185 180
0.357282 0.250616 0.494861 210 209 204
0.010131 0.227905 0.443776 211 210 205
0.080921 0.236204 0.460382 197 196 191
0.336503 0.250789 0.493503 193 192 187
0.054476 0.233078 0.453528 208 207 202
0.293647 0.250664 0.491852 207 208 203
0.319967 0.250619 0.492617 207 206 202
-0.160676 0.200472 0.386486 192 191 186
-0.097893 0.213333 0.411853 206 205 201
0.040792 0.232909 0.451116 210 211 206
0.339050 0.252278 0.494064 206 205 200
-0.111040 0.211066 0.406309 203 202 197
0.045831 0.233586 0.451824 202 201 196
0.284463 0.251786 0.490388 196 195 190
-0.182108 0.196706 0.377635 199 198 193
-0.158897 0.201710 0.387259 202 201 196
0.111680 0.240573 0.465201 203 203 195
0.264406 0.252200 0.490139 200 200 192
0.307212 0.252048 0.490696 197 198 192
0.003608 0.229142 0.441179 209 208 203
0.290133 0.252424 0.491210 203 202 197
0.001110 0.228413 0.439672 206 205 200
0.206410 0.248973 0.482344 207 208 203
-0.082890 0.216398 0.415012 202 203 197
-0.043185 0.222547 0.427658 205 206 200
0.055666 0.235409 0.453266 210 210 202
-0.062660 0.220295 0.422576 207 206 201
0.059423 0.236750 0.454902 205 206 200
0.212111 0.250007 0.482717 207 206 201
0.256025 0.252213 0.487888 213 212 208
0.065076 0.236673 0.454533 202 203 198
0.282833 0.254048 0.491219 202 201 197
0.147837 0.245659 0.471667 196 195 190
0.008440 0.231706 0.442412 211 210 205
0.353577 0.254323 0.492098 204 203 198
0.066775 0.237760 0.453896 214 213 208
0.034385 0.234738 0.447455 207 206 201
0.070193 0.238743 0.455493 207 206 201
0.265062 0.253818 0.487777 198 197 192
0.135200 0.245819 0.469825 180 180 172
0.310510 0.254120 0.488708 191 190 185
0.040759 0.236889 0.449938 207 206 201
-0.183854 0.198528 0.374387 175 174 169
0.079890 0.241323 0.458642 193 192 187
0.284596 0.255609 0.489307 209 208 203
0.038989 0.236996 0.448799 210 211 205
0.140379 0.246717 0.469038 191 190 185
0.046638 0.237308 0.449697 199 198 194
0.245921 0.254325 0.484774 199 198 194
-0.039236 0.226053 0.426671 192 192 184
0.072361 0.239924 0.454362 200 201 196
0.135553 0.246990 0.468303 200 197 192
0.098293 0.244262 0.462124 202 201 196
0.129360 0.247043 0.468152 203 204 199
0.238030 0.255132 0.484858 179 178 173
0.356887 0.257820 0.493069 202 201 196
0.215105 0.253423 0.480839 204 203 198
-0.125490 0.211350 0.396736 201 200 195
-0.046898 0.225071 0.423599 197 196 191
-0.113606 0.214364 0.402043 203 202 197
0.304139 0.257451 0.489800 209 210 205
0.210902 0.254182 0.481070 197 196 191
-0.153629 0.207451 0.388052 203 202 197
0.247738 0.256761 0.485832 204 203 198
0.314315 0.257959 0.489863 196 195 190
-0.111218 0.215365 0.402962 191 190 185
0.019598 0.235609 0.442664 201 200 195
0.034667 0.237582 0.446499 208 207 202
0.008908 0.232742 0.436528 203 202 198
0.074185 0.242446 0.455041 188 187 182
0.329284 0.258994 0.490420 207 204 199
-0.119265 0.214871 0.400387 203 200 195
-0.103594 0.217058 0.404480 205 204 199
0.129794 0.248302 0.465728 205 204 200
0.038126 0.239193 0.447154 208 207 203
0.296856 0.259349 0.488767 202 201 196
-0.163089 0.205764 0.381995 205 204 199
-0.100482 0.217823 0.405049 208 207 202
-0.039808 0.228351 0.425022 207 206 201
-0.030430 0.230077 0.428611 186 186 178
-0.114429 0.216051 0.400368 202 201 196
0.174159 0.253716 0.474207 201 200 195
0.234508 0.257463 0.481969 196 195 190
0.250379 0.258145 0.483741 203 204 198
0.270883 0.258882 0.485411 204 203 198
-0.125690 0.213775 0.395103 184 184 176
0.250982 0.259685 0.483332 195 194 189
-0.117642 0.216098 0.397115 205 204 199
0.009304 0.237754 0.438580 211 210 205
-0.166194 0.206036 0.377935 199 198 193
-0.127187 0.214716 0.393835 192 191 186
-0.139233 0.212700 0.389821 188 187 182
0.035006 0.241212 0.444148 207 208 203
0.044727 0.241927 0.445675 208 207 202
-0.125710 0.216013 0.395626 201 201 193
0.223226 0.258809 0.479143 195 194 189
-0.008570 0.235053 0.431761 205 206 200
0.118809 0.250981 0.462040 192 191 186
0.196306 0.257348 0.475199 195 194 189
-0.002387 0.236062 0.432504 200 199 194
0.051676 0.244196 0.447555 192 191 186
0.021826 0.240514 0.440155 211 210 205
0.175230 0.256853 0.472193 185 184 179
0.250633 0.263059 0.484836 199 198 193
0.066483 0.246114 0.449959 205 204 199
0.345514 0.264899 0.488820 182 182 174
0.068081 0.246839 0.450503 192 191 186
0.204730 0.259417 0.475640 201 200 195
0.279220 0.263249 0.484055 191 190 185
0.049848 0.245181 0.447140 203 202 197
-0.129286 0.215703 0.390843 202 203 197
0.330650 0.264450 0.487212 203 202 197
0.232478 0.261935 0.479752 198 197 192
0.267136 0.262964 0.482490 200 200 192
-0.108499 0.220543 0.399269 202 202 194
0.336112 0.265058 0.487431 201 201 193
0.303410 0.264340 0.484918 207 206 201
0.351723 0.264859 0.486750 192 191 186
-0.049503 0.231994 0.419591 208 207 202
0.084635 0.250500 0.454840 190 189 184
0.247002 0.263465 0.480883 193 192 187
-0.103718 0.222319 0.401410 207 206 201
-0.098728 0.223443 0.402835 193 190 185
-0.124537 0.218369 0.392881 200 199 194
0.104324 0.252804 0.457854 204 201 196
-0.039564 0.233575 0.421296 195 194 189
0.114490 0.254207 0.459849 192 191 186
-0.007789 0.238807 0.429944 201 200 195
0.345200 0.266762 0.486348 196 196 188
-0.172095 0.207944 0.372286 192 191 186
0.051407 0.247761 0.445776 210 211 205
-0.147007 0.215611 0.385383 205 204 199
-0.140667 0.215968 0.386073 206 205 200
0.307065 0.266549 0.483965 200 199 194
0.124415 0.256154 0.460992 199 198 193
-0.062502 0.231211 0.413574 189 188 183
0.158763 0.260072 0.468202 194 193 188
-0.092830 0.225846 0.403616 206 205 200
0.174315 0.260733 0.469456 198 197 192
0.014155 0.243902 0.436639 212 211 206
0.346243 0.267505 0.484737 191 190 185
0.350240 0.268838 0.487163 202 201 196
-0.021887 0.238003 0.425249 192 191 186
0.114166 0.255741 0.458637 199 198 193
0.179998 0.262081 0.470815 185 184 179
0.202917 0.264668 0.475531 194 193 188
0.251139 0.266117 0.479017 198 197 193
0.298265 0.268481 0.484429 205 204 199
-0.130566 0.218905 0.388752 208 207 202
0.284398 0.267449 0.481538 195 194 189
-0.152977 0.214174 0.379445 170 169 164
0.133571 0.258337 0.461533 189 189 181
0.149269 0.260565 0.465932 196 193 188
0.257734 0.267888 0.480932 203 202 197
0.313293 0.268820 0.483983 204 203 198
0.206754 0.264499 0.473396 201 200 195
0.019873 0.245148 0.436128 194 193 188
-0.136031 0.218791 0.387004 199 200 194
-0.154089 0.214154 0.378265 199 198 193
0.012839 0.244931 0.434961 204 203 198
0.199490 0.265218 0.473270 180 179 174
0.270700 0.268801 0.481547 198 197 192
-0.141332 0.216707 0.382317 207 206 201
0.247561 0.267789 0.478862 201 200 195
0.267341 0.268137 0.479405 179 179 171
0.055386 0.251818 0.446083 205 204 199
0.036484 0.249076 0.440549 205 204 199
-0.162220 0.213626 0.375001 186 185 180
0.086397 0.255947 0.451679 188 187 182
0.200316 0.265995 0.471292 201 201 193
-0.049663 0.237399 0.416762 208 207 202
0.056806 0.252285 0.444303 192 191 186
-0.101231 0.227805 0.398995 188 187 182
0.033023 0.249051 0.437696 188 188 180
0.282543 0.270199 0.479412 198 197 192
0.314614 0.272804 0.484322 182 181 176
0.233251 0.269104 0.475641 186 185 180
0.309770 0.272133 0.482325 189 188 183
-0.170482 0.213095 0.371301 203 202 197
-0.149812 0.217359 0.378569 186 185 180
-0.139338 0.219212 0.381866 203 202 197
0.112583 0.259489 0.454746 192 189 182
-0.015143 0.243778 0.425257 209 208 203
-0.060139 0.235637 0.410192 195 194 189
-0.160896 0.215798 0.373974 191 191 183
-0.091617 -0.055173 0.520459 79 83 86
-0.119023 -0.052906 0.511359 60 65 71
-0.090929 -0.050176 0.520922 226 220 198
0.070827 -0.046368 0.553713 234 230 227
-0.156948 -0.035663 0.493410 212 216 217
-0.068367 -0.009147 0.498289 223 220 211
-0.101452 0.001613 0.484800 63 68 72
0.046948 0.024691 0.508898 170 121 116
-0.114097 0.087327 0.428903 217 214 119
0.002063 0.133477 0.451763 102 102 100
-0.120415 0.140163 0.431291 33 31 32
-0.103439 0.153771 0.441448 61 60 56
0.280371 0.192665 0.519260 211 210 205
-0.221849 -0.331402 0.734540 24 26 25
-0.019812 -0.365986 0.839242 33 37 40
0.070380 -0.339190 0.826007 42 50 53
0.142426 -0.335418 0.849843 214 219 225
0.152713 -0.317855 0.814252 209 216 222
0.183095 -0.325095 0.849742 210 218 221
0.201708 -0.309789 0.839018 46 51 55
-0.122263 -0.240667 0.691609 211 211 203
-0.102208 -0.232461 0.692928 210 209 204
-0.105332 -0.220732 0.684278 219 218 213
-0.001431 -0.215100 0.699535 219 220 215
-0.115206 -0.206105 0.672643 221 220 215
-0.064295 -0.201124 0.679865 219 218 214
-0.121318 -0.195185 0.668823 208 209 203
0.056775 -0.199096 0.699322 221 220 215
0.068063 -0.198946 0.701353 95 99 102
-0.122052 -0.188090 0.661291 215 214 209
-0.102471 -0.186703 0.663994 219 218 213
-0.138405 -0.179988 0.653485 220 219 214
-0.108938 -0.178306 0.657097 204 203 198
0.030277 -0.177056 0.683709 222 221 217
0.118666 -0.174616 0.687402 217 216 211
0.057663 -0.172990 0.684983 218 217 212
0.125916 -0.173590 0.689851 219 218 214
-0.053692 -0.165130 0.661966 203 202 197
-0.128612 -0.159939 0.642612 219 218 213
-0.197838 -0.122897 0.533427 214 213 208
0.208023 -0.158070 0.737950 215 214 209
0.210910 -0.154333 0.719020 218 217 213
-0.107842 -0.119830 0.558516 63 68 72
-0.105576 -0.119364 0.560601 176 178 164
-0.011938 -0.121786 0.582386 125 127 116
0.041178 -0.123555 0.592480 239 218 215
-0.108054 -0.116859 0.557624 66 74 77
-0.098655 -0.112745 0.556710 182 169 117
-0.063766 -0.113724 0.565659 123 126 119
0.115786 -0.118133 0.597311 211 205 143
0.049222 -0.115617 0.589210 153 113 111
-0.102203 -0.109942 0.554802 194 183 119
0.120822 -0.115656 0.597565 214 209 189
-0.106292 -0.108381 0.552708 67 73 73
0.015949 -0.110183 0.580882 221 223 210
0.107497 -0.110694 0.593599 61 90 146
0.104737 -0.109833 0.590618 57 89 148
0.108876 -0.107846 0.591394 61 98 153
0.067928 -0.106445 0.585929 153 112 108
0.071862 -0.106655 0.586903 157 113 112
0.096512 -0.105483 0.588819 212 207 169
0.113002 -0.104158 0.586935 216 201 106
0.107750 -0.103227 0.588020 217 202 107
0.038328 -0.101935 0.580429 155 111 108
0.117525 -0.102992 0.590974 213 210 195
-0.061773 -0.097411 0.556601 216 220 206
0.062787 -0.100974 0.583037 155 114 110
0.068715 -0.100348 0.582146 158 115 109
0.038564 -0.099051 0.577892 156 115 111
-0.067128 -0.095139 0.552652 133 136 125
-0.087007 -0.093444 0.548347 74 79 83
-0.061306 -0.092532 0.553564 216 218 205
-0.109689 -0.088883 0.539625 215 219 220
-0.098027 -0.089275 0.542782 185 178 136
-0.151817 -0.085876 0.523927 214 219 222
-0.030157 -0.088963 0.558387 217 221 207
-0.078374 -0.086237 0.545055 70 75 79
0.043798 -0.089520 0.574305 237 223 220
0.047991 -0.087979 0.574295 155 118 112
-0.024658 -0.085814 0.558919 221 225 211
0.015746 -0.084682 0.566284 220 222 209
0.074990 -0.084787 0.575006 156 115 111
0.121780 -0.084304 0.577721 132 88 85
0.125546 -0.082318 0.576552 156 113 107
-0.113950 -0.076837 0.528844 70 75 78
0.134345 -0.081429 0.576633 157 114 108
0.187902 -0.080756 0.578564 149 104 99
-0.031416 -0.078315 0.552373 221 223 210
0.045649 -0.079619 0.568554 156 123 118
0.050825 -0.079090 0.569068 160 121 116
0.074954 -0.079395 0.573358 158 121 115
0.237204 -0.078830 0.577397 146 103 97
0.038917 -0.077227 0.566703 157 118 113
-0.103428 -0.072955 0.531080 226 219 200
0.137698 -0.072626 0.572052 127 82 79
0.188888 -0.071665 0.573181 148 104 95
0.102645 -0.071022 0.570254 161 121 111
0.125866 -0.070714 0.571498 159 116 110
-0.090296 -0.066831 0.530004 77 82 85
0.145202 -0.070049 0.571106 127 82 79
0.045571 -0.069318 0.563062 163 128 122
0.082266 -0.068325 0.565890 239 227 229
0.130423 -0.068540 0.570170 134 89 86
-0.140235 -0.063354 0.516228 53 61 64
-0.115323 -0.064300 0.523548 66 71 74
0.122713 -0.066611 0.567971 130 86 83
0.074140 -0.066011 0.564289 161 126 122
-0.090308 -0.061228 0.526003 77 81 84
-0.099142 -0.060886 0.523911 72 76 79
0.082551 -0.063574 0.564510 238 228 226
-0.034703 -0.061437 0.541873 172 175 164
0.038372 -0.062566 0.560510 159 120 115
0.189172 -0.062860 0.568074 150 103 97
0.096428 -0.062894 0.565984 158 120 111
-0.108964 -0.057842 0.520573 65 70 73
0.085469 -0.060682 0.562526 158 117 113
-0.104755 -0.057107 0.519006 71 77 77
-0.047635 -0.058387 0.537454 208 212 198
-0.117656 -0.055810 0.516139 220 215 196
0.140543 -0.058871 0.564337 151 106 101
-0.091518 -0.054998 0.522951 80 81 85
-0.038428 -0.055642 0.537300 221 223 212
-0.050277 -0.054505 0.533350 221 223 212
0.044455 -0.055717 0.555973 162 132 130
0.095772 -0.055653 0.559088 158 117 111
-0.100665 -0.052802 0.520191 71 75 78
-0.017579 -0.054214 0.540160 222 224 211
0.082316 -0.055089 0.556680 158 119 114
0.101549 -0.055202 0.560874 160 119 113
-0.178883 -0.050266 0.497231 49 54 58
0.123907 -0.054543 0.562185 126 85 81
-0.177778 -0.049743 0.497349 64 74 76
0.037317 -0.054035 0.555533 246 232 232
0.134840 -0.054619 0.564465 155 112 106
0.098594 -0.053636 0.560361 232 215 187
-0.048165 -0.051498 0.531698 159 162 151
-0.153569 -0.048708 0.497976 212 216 219
0.065040 -0.052599 0.556759 159 126 121
0.074688 -0.052106 0.555107 165 126 121
-0.156790 -0.048973 0.503625 210 214 217
0.126937 -0.052167 0.561346 154 110 107
-0.177287 -0.047455 0.497125 207 215 217
-0.034138 -0.050419 0.535666 193 196 185
0.042115 -0.050605 0.554544 163 124 119
-0.122970 -0.047586 0.508955 56 64 67
-0.050344 -0.049201 0.528713 219 223 209
0.047118 -0.050548 0.553517 162 123 118
0.154488 -0.050790 0.561299 123 79 76
0.129011 -0.050056 0.560316 156 113 107
0.142081 -0.049569 0.560805 153 108 105
-0.032120 -0.047424 0.533847 220 222 211
0.146687 -0.048124 0.559438 115 71 68
0.076702 -0.047496 0.556367 161 122 115
-0.087023 -0.044727 0.514443 74 78 81
0.081164 -0.046908 0.555351 243 229 226
0.051482 -0.046663 0.551299 163 124 119
0.010253 -0.045641 0.543918 221 223 212
0.074075 -0.046440 0.554125 163 125 122
-0.030720 -0.043598 0.533836 219 222 211
0.079881 -0.043112 0.553084 163 122 116
0.046281 -0.041818 0.547804 161 130 127
0.060209 -0.041867 0.552324 236 228 226
0.051665 -0.041153 0.549642 165 126 121
0.069349 -0.041632 0.553324 231 225 227
0.131888 -0.041445 0.555487 128 84 81
0.097720 -0.040459 0.553079 160 120 112
0.437868 -0.043359 0.632375 209 208 204
0.039535 -0.039219 0.546165 160 121 116
-0.034276 -0.038089 0.528665 195 198 187
-0.041472 -0.037550 0.526088 179 182 171
-0.018510 -0.037900 0.531859 223 226 217
0.105338 -0.037926 0.552392 154 113 109
-0.141915 -0.035164 0.491214 53 61 64
-0.091365 -0.036190 0.510531 75 78 83
0.052273 -0.037156 0.546036 163 124 119
0.052959 -0.037042 0.541063 162 123 118
0.132061 -0.036791 0.553652 131 88 82
-0.031375 -0.035669 0.528251 218 221 210
0.000309 -0.035579 0.536327 222 223 215
0.008239 -0.035677 0.537821 221 223 212
0.191231 -0.035060 0.553501 146 99 91
-0.064984 -0.032949 0.516507 219 222 211
-0.003899 -0.033661 0.533881 220 223 212
-0.076682 -0.032549 0.511992 220 221 215
0.057741 -0.033399 0.545794 157 116 112
0.160065 -0.032944 0.550772 150 102 98
-0.030808 -0.032124 0.525055 221 224 213
0.071597 -0.032653 0.545858 241 227 226
0.139899 -0.032163 0.551045 130 85 82
-0.068004 -0.030676 0.511371 227 228 214
0.067371 -0.031762 0.545546 159 120 115
0.127439 -0.031640 0.551193 155 110 105
0.019678 -0.031126 0.537472 158 117 111
-0.078532 -0.028522 0.510739 78 79 83
-0.024027 -0.028518 0.524210 220 221 213
-0.162507 -0.026619 0.485364 48 56 59
-0.003904 -0.027566 0.530288 221 225 211
0.132224 -0.027991 0.548406 131 87 84
0.161199 -0.027830 0.549443 148 103 98
0.075786 -0.026917 0.542254 163 124 119
-0.014533 -0.026520 0.526760 221 224 213
-0.077274 -0.025436 0.511451 220 222 211
-0.051073 -0.024460 0.514219 221 224 213
0.286976 -0.025857 0.619521 202 201 196
0.106678 -0.023650 0.543133 154 109 104
-0.038567 -0.022264 0.516066 222 224 213
-0.093891 -0.021762 0.500689 238 233 214
-0.011616 -0.021803 0.526419 222 223 215
-0.071369 -0.020934 0.505973 219 221 210
-0.030878 -0.020758 0.517941 223 226 217
-0.034385 -0.020413 0.517090 217 220 209
-0.041061 -0.019769 0.513857 206 209 198
0.105129 -0.019938 0.541703 154 111 104
-0.014432 -0.019219 0.521814 223 225 214
0.051496 -0.018966 0.536402 166 122 119
-0.024207 -0.018340 0.517525 222 225 216
-0.089213 -0.017806 0.498193 68 71 76
-0.050478 -0.017944 0.510008 217 220 209
-0.144612 -0.017066 0.483108 58 66 69
-0.050255 -0.016413 0.508154 216 219 208
0.035501 -0.016504 0.532693 158 115 109
-0.068892 -0.015479 0.502895 221 224 213
-0.167523 -0.014679 0.476874 50 57 63
0.092881 -0.014789 0.537362 155 112 105
0.105991 -0.014756 0.538612 152 109 102
-0.065541 -0.013989 0.502183 221 225 211
-0.044415 -0.013676 0.508827 222 225 216
-0.038668 -0.012742 0.509692 221 224 213
0.081531 -0.013045 0.536217 159 116 109
-0.094782 -0.012513 0.496364 74 75 77
-0.072949 -0.010794 0.499580 218 222 208
0.071665 -0.010659 0.533489 230 232 231
-0.103570 -0.010671 0.489024 223 217 195
-0.030681 -0.009721 0.511106 222 223 215
-0.100510 -0.009351 0.490935 62 67 70
-0.094475 -0.008686 0.491506 229 227 215
-0.076130 -0.007906 0.495057 217 220 209
0.165750 -0.007529 0.537510 126 81 76
-0.025729 -0.007590 0.511201 222 225 214
0.047918 -0.006312 0.527856 168 125 118
0.151242 -0.005899 0.536067 152 105 99
0.146956 -0.005264 0.547207 155 108 102
-0.032163 -0.005476 0.508173 222 224 213
0.042589 -0.004103 0.526438 168 123 117
-0.039486 -0.004064 0.503175 217 220 209
0.005709 -0.003493 0.517941 221 223 210
0.066574 -0.003468 0.526855 156 109 103
0.079367 -0.003470 0.529319 155 110 104
-0.181674 -0.003919 0.465305 208 213 216
0.052497 -0.002915 0.526663 162 121 115
0.336080 -0.000956 0.607506 42 151 216
-0.179804 -0.002679 0.464916 207 213 213
-0.176540 -0.002705 0.469824 208 213 216
0.146079 -0.001628 0.531532 158 111 105
-0.064502 -0.000754 0.495105 219 222 211
-0.036774 -0.000117 0.503354 221 223 212
0.020495 0.000114 0.517831 158 111 105
-0.066996 0.000058 0.494209 145 140 121
0.016969 0.000966 0.516518 219 221 208
-0.117274 0.000656 0.478670 56 63 69
-0.045929 0.001163 0.499630 218 221 210
-0.096306 0.001173 0.483863 66 70 73
0.067207 0.002280 0.526279 237 226 230
-0.101628 0.001388 0.482738 62 67 70
-0.046326 0.002712 0.498195 219 223 209
-0.180402 0.003440 0.460298 208 212 213
-0.076519 0.004214 0.488626 217 220 209
-0.117473 0.004246 0.476543 58 66 69
-0.106350 0.004552 0.479002 64 69 72
-0.121250 0.004514 0.474212 57 62 66
-0.040913 0.005379 0.497123 221 223 212
-0.119864 0.006679 0.475226 217 208 179
-0.100319 0.006742 0.479727 64 69 73
-0.061330 0.007056 0.491147 220 223 212
0.072818 0.008041 0.523706 241 239 240
0.080887 0.008088 0.526481 161 118 109
0.020810 0.008672 0.512129 162 112 103
-0.089862 0.007772 0.485748 64 69 75
0.051636 0.009017 0.518833 169 124 118
0.126577 0.009336 0.527052 120 75 70
0.047354 0.010049 0.519281 171 124 118
0.057567 0.010221 0.521637 165 121 112
0.129085 0.012553 0.525557 156 107 102
-0.059766 0.011948 0.488105 218 219 211
0.163800 0.013496 0.527232 155 106 101
-0.054944 0.012348 0.488690 221 223 212
0.042637 0.014227 0.515966 174 127 121
0.438095 0.019398 0.592130 39 146 214
-0.031841 0.015151 0.494855 221 221 211
-0.014623 0.015407 0.500971 222 222 212
-0.025501 0.015621 0.497158 219 221 208
-0.007719 0.016063 0.502188 203 201 186
-0.042193 0.015871 0.491993 221 224 213
-0.010107 0.017311 0.501259 219 223 209
-0.137188 0.015689 0.466343 51 56 62
0.039804 0.018409 0.512268 168 119 112
